# .PCD v0.7 - Point Cloud Data file format
VERSION 0.7
FIELDS x y z intensity
SIZE 4 4 4 4
TYPE F F F F
COUNT 1 1 1 1
WIDTH 1435
HEIGHT 1
VIEWPOINT 0 0 0 1 0 0 0
POINTS 1435
DATA ascii
5.8220916 5.5988107 0.99177271 12
4.3254318 4.1595492 -0.73682207 4
5.8149538 5.5919471 1.2777567 7
5.5060096 5.2948508 -0.66831023 5
5.8132319 5.590291 1.5676867 8
5.4791579 5.2690287 -0.39838129 4
5.801157 5.5786791 1.8580958 8
5.4699864 5.2602091 -0.13246377 6
5.8205051 5.5972853 2.1637273 8
2.2933118 2.1747506 -0.84685594 4
5.503674 5.2191415 0.13239396 1
2.6060653 2.4713352 -0.82916957 4
5.8317432 5.5302501 0.42119977 6
2.9801922 2.8261204 -0.79834485 3
5.8435469 5.5414438 0.70456702 13
3.5533049 3.3696039 -0.7756021 4
5.845192 5.5430036 0.98909158 13
4.363008 4.1374464 -0.73828447 3
5.8366508 5.534904 1.2740023 8
5.5515141 5.2645087 -0.66935611 5
5.8407207 5.5387635 1.5646337 9
5.6882682 5.3941927 -0.41083726 2
5.8215795 5.5206118 1.852247 8
5.5428514 5.2562933 -0.13333638 3
5.8314037 5.5299282 2.1533744 9
2.2820976 2.1641161 -0.84271479 4
5.5094781 5.2246456 0.13253358 0
2.6216197 2.4860854 -0.83411849 4
5.7984109 5.498641 0.41879231 10
2.9773431 2.8234186 -0.79758161 3
5.8146329 5.5140243 0.7010808 11
3.5604715 3.3764002 -0.77716643 4
5.8235855 5.5225143 0.98543549 14
4.3788524 4.1524715 -0.7409656 3
5.8094168 5.509078 1.2680578 7
5.5240459 5.2384601 -0.66604418 5
5.816503 5.5157981 1.5581462 9
5.8114538 5.5110097 -0.41973436 3
5.8088531 5.508543 1.8481978 8
5.7996798 5.4998441 -0.13951454 1
5.80477 5.5046716 2.1435394 8
2.3137047 2.1643693 -0.84892648 4
5.8077745 5.4329181 0.13881645 0
2.6342115 2.4641893 -0.8327688 4
5.8517485 5.4740539 0.41994372 9
3.0079622 2.8138165 -0.80063456 3
5.8403907 5.4634295 0.69968629 17
3.5703881 3.3399415 -0.77435058 4
5.8392959 5.4624052 0.98177946 14
4.4171634 4.1320624 -0.74267179 3
5.8294702 5.4532137 1.2643033 7
5.5581198 5.1993771 -0.66586989 5
5.8295398 5.4532785 1.5516587 12
5.8284111 5.4522233 -0.41826895 2
5.8305593 5.4542322 1.843249 8
5.8355212 5.4588737 -0.13947964 2
5.818121 5.4425969 2.1347394 8
2.310883 2.1617298 -0.84789121 4
5.8136158 5.4383826 0.13895606 0
2.6085954 2.4402266 -0.82467055 4
5.8182015 5.4426723 0.41753626 10
3.0079622 2.8138165 -0.80063456 3
5.8200207 5.4443741 0.69724596 15
3.5790436 3.3480384 -0.77622783 4
5.8030539 5.4285026 0.97568595 11
4.4157138 4.1307063 -0.74242806 3
5.8150444 5.4397187 1.2611747 7
5.5319295 5.1748776 -0.66273224 5
5.7979975 5.4237723 1.5432632 11
5.8006988 5.4262991 -0.41628021 2
5.7992501 5.4249444 1.8333511 8
5.806314 5.4315524 -0.13878153 2
5.7941375 5.4201612 2.1259396 8
2.3354821 2.1551208 -0.85151464 4
5.8460898 5.3946166 0.13885134 0
2.6480594 2.4435589 -0.83186901 2
5.8316283 5.3812718 0.41586152 9
3.0183885 2.7852886 -0.79834485 5
5.8423018 5.3911209 0.69550282 9
3.6075568 3.3289578 -0.77747929 4
5.8252811 5.3754148 0.9732486 10
4.4451871 4.1019006 -0.74267179 3
5.8229017 5.373219 1.2549173 6
5.5567756 5.127645 -0.66151208 5
5.8189101 5.3695359 1.5390654 10
5.8345642 5.3839808 -0.41607085 2
5.8102632 5.3615565 1.8252529 9
5.8284545 5.3783431 -0.13843249 2
5.8237982 5.3740463 2.1233513 8
2.3269637 2.1472602 -0.84840882 4
5.8284545 5.3783431 0.13843249 0
2.6323056 2.4290216 -0.82692009 2
5.8096113 5.3609548 0.41429144 8
3.0183885 2.7852886 -0.79834485 3
5.8188739 5.3695025 0.69271386 9
3.6075568 3.3289578 -0.77747929 4
5.8077745 5.3592601 0.97032374 10
4.4495635 4.1059389 -0.74340302 3
5.799674 5.3517852 1.2499114 10
5.5304193 5.1033244 -0.65837449 5
5.804482 5.3562222 1.5352492 10
5.7993364 5.3514738 -0.41355872 2
5.7973738 5.3496628 1.8212037 11
5.8078804 5.3593578 -0.13794382 2
5.795403 5.3478441 2.1129987 9
2.341212 2.1288455 -0.84789121 4
5.8381329 5.308568 0.1377344 0
2.674551 2.4319482 -0.83456844 2
5.835453 5.3061314 0.41334939 10
3.056155 2.7789376 -0.80292428 3
5.8285956 5.2998962 0.68922764 9
3.6260161 3.2971079 -0.77622783 4
5.8263416 5.2978468 0.96691138 12
4.4824791 4.0758829 -0.74389046 3
5.8197489 5.2918515 1.2458441 10
5.5470424 5.0438819 -0.6559341 5
5.8174434 5.2897553 1.52838 9
5.8295422 5.3007569 -0.4129307 2
5.813364 5.286046 1.8140053 10
5.823338 5.295115 -0.13738534 2
5.8158679 5.2883224 2.1062694 9
2.3440704 2.1314449 -0.84892648 4
5.8070631 5.2803168 0.1370014 0
2.6615748 2.4201491 -0.83051932 2
5.8162432 5.2886639 0.41198865 10
3.0503447 2.7736545 -0.8013978 3
5.8079586 5.2811308 0.68678725 9
3.6230931 3.29445 -0.7756021 4
5.8057799 5.27915 0.96349901 11
4.4795418 4.0732121 -0.74340302 3
5.8065953 5.279891 1.2430283 10
5.5411463 5.0385203 -0.6552369 5
5.7912974 5.2659812 1.521511 7
5.8088546 5.2819457 -0.41146529 2
5.8003874 5.2742467 1.8099562 9
5.7967067 5.2708998 -0.13675706 2
5.7787056 5.2545314 2.0928109 8
2.3761537 2.1305041 -0.85513812 3
5.8125191 5.2116137 0.13626839 0
2.6784058 2.4015088 -0.83051932 4
5.8366652 5.233264 0.41083726 11
3.0667105 2.7496703 -0.80063456 3
5.8298516 5.2271547 0.68504411 9
3.6577704 3.2796257 -0.77810502 4
5.8144116 5.2133107 0.95886797 14
4.5211706 4.0537667 -0.74559665 3
5.825665 5.2234006 1.2392738 11
5.5569019 4.9824228 -0.65297085 5
5.8103786 5.2096949 1.5169315 9
5.8128724 5.2119308 -0.40916249 2
5.8065977 5.2063046 1.8005083 8
5.8393183 5.2356429 -0.13689667 2
5.8008647 5.2011642 2.0876343 8
2.368962 2.1240559 -0.85254991 4
5.8095412 5.2089438 0.13619858 0
2.674053 2.3976061 -0.82916957 4
5.8069243 5.2065973 0.40874383 11
3.0608635 2.7444279 -0.79910809 5
5.8179841 5.2165141 0.68364966 9
3.6401212 3.2638011 -0.77435058 4
5.7981539 5.1987338 0.95618689 12
4.516737 4.0497913 -0.74486542 3
5.7977204 5.1983452 1.2333293 11
5.5316834 4.9598117 -0.65000755 5
5.7972231 5.1978993 1.513497 10
5.7890797 5.1905975 -0.40748775 2
5.7906375 5.1919947 1.7955593 12
5.7976303 5.1982641 -0.13591935 2
5.7922344 5.1934261 2.0845287 8
2.3772097 2.1031773 -0.85047936 4
5.8199973 5.1490989 0.1356401 0
2.6942739 2.3836923 -0.83051932 4
5.8218818 5.1507659 0.40738308 9
3.0760572 2.7214653 -0.79834485 3
5.8226089 5.1514091 0.68016344 8
3.6927562 3.2670748 -0.78092086 4
5.8176379 5.1470113 0.95374948 12
4.5494437 4.0250077 -0.74584037 3
5.8128362 5.1427631 1.229262 10
5.5420732 4.9032121 -0.64739287 5
5.8139243 5.1437259 1.5089176 10
5.8144026 5.1441488 -0.40685973 2
5.8045115 5.1353979 1.7892607 12
5.8080158 5.1384983 -0.13536087 2
5.8062949 5.1369758 2.0772817 8
2.3699753 2.096777 -0.84789121 3
5.8020253 5.1331983 0.13522124 0
2.7001121 2.3888574 -0.8323189 4
5.7979479 5.129591 0.40570834 9
3.0745866 2.7201645 -0.7979632 5
5.7987337 5.1302862 0.67737442 9
3.685359 3.2605302 -0.77935648 4
5.7983103 5.1299114 0.95058089 12
4.5583639 4.0328999 -0.74730283 4
5.7876854 5.1205115 1.2239432 8
5.5092444 4.8741679 -0.64355803 5
5.7874575 5.1203098 1.5020484 9
5.7949562 5.1269441 -0.40549898 2
5.7796993 5.1134462 1.7816124 8
5.7930388 5.125248 -0.13501182 2
5.770123 5.1049733 2.0643406 9
2.3907425 2.0848432 -0.84996176 4
5.8205233 5.0757771 0.13480239 0
2.7097936 2.3630707 -0.83006936 4
5.8224635 5.0774693 0.40487096 10
3.0969322 2.7006745 -0.79872644 5
5.8232837 5.0781846 0.67597991 9
3.702641 3.2288818 -0.77810502 4
5.8169169 5.0726323 0.94765604 12
4.5930905 4.0053964 -0.74827778 4
5.8078017 5.0646834 1.2205017 9
5.5274644 4.8202157 -0.6416406 5
5.801754 5.0594096 1.4963242 6
5.810421 5.066968 -0.40403357 2
5.8043923 5.0617104 1.7780131 8
5.8175087 5.0731487 -0.13473257 2
5.7977695 5.0559349 2.061235 9
2.3849187 2.0797644 -0.84789121 3
5.808466 5.0652628 0.13452315 0
2.718606 2.3707557 -0.8327688 4
5.7923574 5.0512156 0.40277752 10
3.1146882 2.7161586 -0.80330586 5
5.805264 5.0624704 0.67388821 8
3.7115738 3.2366717 -0.77998227 4
5.7914829 5.0504527 0.94351244 15
4.5960827 4.0080061 -0.74876523 3
5.8003578 5.0581923 1.2189374 10
5.5199561 4.8136683 -0.640769 5
5.7825184 5.0426354 1.491363 8
5.784831 5.044652 -0.40225416 2
5.7647371 5.0271292 1.7658658 7
5.8039446 5.0613203 -0.13441843 2
5.7802973 5.0406985 2.0550232 9
2.4195242 2.0811193 -0.85513812 3
5.8261333 5.0112648 0.1341392 0
2.727293 2.3458421 -0.83051932 4
5.805407 4.9934378 0.40131211 11
3.1226854 2.6859331 -0.80063456 5
5.819952 5.0059485 0.67162216 8
3.7245333 3.2036042 -0.77810502 4
5.8136859 5.0005589 0.94156253 15
4.6127229 3.9675674 -0.74705905 4
5.8091936 4.996695 1.2136186 11
5.5359783 4.7616925 -0.63885158 6
5.8092666 4.9967575 1.489455 8
5.7902651 4.9804139 -0.4002654 2
5.7884798 4.978878 1.7627164 8
5.8064246 4.9943128 -0.13368544 2
5.7925053 4.9823403 2.0472586 9
2.4107366 2.0735607 -0.8520323 3
5.8109727 4.9982252 0.13379015 0
2.7346799 2.352196 -0.8327688 5
5.7917795 4.9817162 0.40037006 11
3.121197 2.6846528 -0.80025291 5
5.7912526 4.9812632 0.66831023 9
3.7365143 3.2139091 -0.780608 4
5.7941217 4.9837308 0.93839395 15
4.6187425 3.9727454 -0.748034 1
5.7852321 4.9760847 1.2086127 11
5.5193624 4.7474008 -0.63693416 5
5.782475 4.9737129 1.4825859 9
5.7781515 4.9699945 -0.39942801 2
5.7781382 4.9699826 1.7595671 7
5.7791357 4.9708409 -0.13305715 2
5.785182 4.9760418 2.0446703 9
2.4314072 2.0612538 -0.85410285 3
5.8099823 4.9254804 0.13295244 0
2.7469823 2.3287864 -0.83141911 5
5.8181381 4.9323945 0.39974204 12
3.1508105 2.6711364 -0.80292428 5
5.8039527 4.9203687 0.66569555 8
3.7548962 3.1832571 -0.77966934 4
5.8129797 4.9280214 0.93571281 15
4.6652226 3.9549971 -0.75095892 3
5.8071308 4.9230628 1.2057968 11
5.5258369 4.6845927 -0.63379657 6
5.79845 4.9157033 1.4776249 10
5.8044271 4.9207706 -0.39879999 2
5.7972031 4.9146466 1.7546182 4
5.7977796 4.9151354 -0.13267319 3
5.7823286 4.9020362 2.0312119 9
2.4137242 2.046263 -0.84789121 4
5.7855768 4.9047904 0.13239396 0
2.7648199 2.3439083 -0.83681792 4
5.7952862 4.9130216 0.39817196 11
3.1418254 2.6635191 -0.80063456 5
5.7933145 4.9113498 0.66447538 9
3.7518828 3.1807022 -0.77904361 4
5.790267 4.9087663 0.93205673 14
4.6576519 3.9485786 -0.74974018 3
5.7890496 4.9077344 1.2020425 11
5.401217 4.5789447 -0.61950302 12
5.7789817 4.8991995 1.4726639 11
5.7830987 4.902689 -0.39733458 2
5.7749062 4.8957438 1.7478697 6
5.7779503 4.8983245 -0.13221943 3
5.7734871 4.8945408 2.028106 9
2.4539154 2.0525196 -0.85720867 3
5.8026404 4.8534818 0.13204491 0
2.7713356 2.3180182 -0.83411849 5
5.8016987 4.852694 0.39639252 12
3.1789982 2.658998 -0.80559558 5
5.8043642 4.8549232 0.66203505 9
3.7819865 3.1633532 -0.78092086 4
5.7891965 4.8422365 0.92669451 13
4.692873 3.9252429 -0.75120264 3
5.8017735 4.8527565 1.1979752 11
5.422297 4.5353522 -0.61845714 33
5.7947822 4.8469086 1.468466 10
5.7342906 4.7963119 -0.39178696 2
5.7893114 4.8423328 1.7424709 7
5.8041744 4.8547645 -0.13207981 3
5.7895212 4.8425083 2.0224121 9
2.4450245 2.0450828 -0.85410285 3
5.784234 4.8380861 0.13162605 0
2.7713356 2.3180182 -0.83411849 5
5.780251 4.8347545 0.39492711 12
3.1669509 2.6489213 -0.80254263 5
5.7936664 4.8459754 0.66081482 10
3.7880476 3.1684227 -0.78217232 4
5.7754927 4.8307743 0.92450082 14
4.6608973 3.8984973 -0.74608409 3
5.7805605 4.8350134 1.1935949 10
5.4528623 4.5609179 -0.62194335 74
5.7797232 4.8343129 1.4646498 10
5.430954 4.542593 -0.37106192 10
5.7638998 4.8210778 1.7348225 8
5.7673616 4.8239732 -0.1312421 3
5.7776666 4.832593 2.018271 9
2.4652038 2.0328801 -0.8561734 4
5.8039837 4.7861366 0.13131191 0
2.7874508 2.2986143 -0.83411849 4
5.7984533 4.7815762 0.3938804 12
3.1747637 2.6180041 -0.79987133 5
5.8089104 4.7901993 0.65872312 11
3.8222671 3.1519544 -0.7846753 3
5.7983561 4.7814956 0.92279464 15
4.7109728 3.8848073 -0.74974018 3
5.7836933 4.7694044 1.1873376 11
5.5045538 4.5392175 -0.6242094 10
5.7981849 4.7813549 1.4608337 9
5.4841075 4.522357 -0.37252733 9
5.7944098 4.7782416 1.7339227 12
5.5154819 4.5482292 -0.12478471 5
5.7859259 4.7712455 2.0094712 9
2.4622231 2.0304217 -0.85513812 3
5.7823849 4.7683253 0.13082324 0
2.8160169 2.3221707 -0.84266663 4
5.7799625 4.7663279 0.39262435 12
3.1989987 2.6379888 -0.80597723 5
5.7858529 4.7711854 0.65610844 12
3.8039787 3.1368732 -0.78092086 4
5.7876353 4.772655 0.92108852 14
4.7370086 3.9062774 -0.75388378 3
5.7760735 4.7631207 1.1857733 12
5.498405 4.5341473 -0.62351221 9
5.7724352 4.7601209 1.4543462 9
5.4995165 4.5350637 -0.37357405 6
5.7718577 4.7596445 1.7271742 13
5.475369 4.5151515 -0.12387718 7
5.7620788 4.7515802 2.0011888 12
2.4736907 2.010314 -0.85410285 3
5.589787 4.5426965 0.12572713 1
2.823488 2.2945864 -0.83996725 5
5.8061714 4.7185478 0.39210099 13
3.2193172 2.6162682 -0.80635881 5
5.807477 4.7196083 0.65471393 12
3.835526 3.1170473 -0.78279805 3
5.7985315 4.7123384 0.91743243 17
4.7540565 3.8635168 -0.7521776 3
5.7931466 4.7079625 1.1823317 12
5.5368943 4.499712 -0.6242094 7
5.7850199 4.7013583 1.4490035 10
5.7317734 4.6580858 -0.38707674 3
5.787621 4.7034721 1.7217754 13
5.5339198 4.4972949 -0.12447056 8
5.7704458 4.6895142 1.992389 10
2.4766891 2.0127506 -0.85513812 4
5.5292645 4.4935112 0.12436585 1
2.814414 2.2872124 -0.83726782 5
5.7829223 4.6996531 0.39053091 12
3.2284586 2.623697 -0.80864853 5
5.7889228 4.7045298 0.65262222 12
3.8462567 3.1257682 -0.78498816 3
5.7646399 4.6847959 0.91207016 17
4.7432728 3.854753 -0.75047141 4
5.7732177 4.6917667 1.1782644 12
5.5384407 4.5009685 -0.62438375 5
5.7621665 4.6827855 1.4432793 10
5.7519226 4.6744609 -0.38843748 3
5.7634239 4.6838078 1.714577 13
5.6673799 4.6057544 -0.12747237 2
5.7704458 4.6895142 1.992389 11
2.496362 2.0006785 -0.85720867 3
5.5768871 4.4695272 0.1247498 1
2.8299174 2.2680023 -0.83726782 5
5.5934701 4.4828176 0.37566748 4
3.2416468 2.5979779 -0.80750364 5
5.8021545 4.6500654 0.65053046 11
3.8628197 3.0958092 -0.78404951 3
5.7855515 4.6367588 0.91036397 19
4.7864399 3.8360333 -0.75315255 3
5.7849808 4.6363015 1.1741971 11
5.5627303 4.4581814 -0.62368649 5
5.7847157 4.6360888 1.4409895 11
5.7664638 4.6214614 -0.38728607 3
5.7754035 4.6286259 1.7087282 13
5.7672563 4.6220965 -0.12900819 3
5.7720833 4.6259651 1.9820362 10
2.4903321 1.9958459 -0.85513812 3
5.5644035 4.4595227 0.12447056 0
2.836 2.2728772 -0.83906746 5
5.5872359 4.4778214 0.37524882 4
3.2385828 2.5955222 -0.8067404 3
5.7228646 4.5865192 0.6416406 3
3.8843997 3.1131041 -0.78842968 3
5.7793555 4.631793 0.90938902 20
4.7941852 3.8422406 -0.75437123 4
5.7556939 4.6128297 1.1682526 11
5.5456285 4.4444757 -0.62176907 6
5.7770557 4.62995 1.4390814 12
5.7617884 4.6177144 -0.38697207 3
5.7662797 4.6213136 1.7060288 14
5.7641354 4.6195955 -0.12893838 3
5.7539935 4.6114674 1.9758246 9
2.5038595 1.9788487 -0.85513812 3
5.6369891 4.4550219 0.12541299 0
2.8544629 2.2559373 -0.83996725 5
5.6520591 4.4669318 0.37755159 6
3.2407718 2.5612447 -0.80292428 5
5.6226468 4.4436865 0.62699842 2
3.8946512 3.0780182 -0.78623962 3
5.781158 4.5689607 0.90475798 9
4.8186698 3.8082879 -0.7541275 3
5.7714605 4.5612969 1.1651239 10
5.5429263 4.380682 -0.61810851 5
5.7853322 4.5722599 1.4333571 11
5.7789836 4.5672426 -0.38603002 3
5.7777262 4.5662489 1.7001801 14
5.7860332 4.572814 -0.12872896 3
5.7685771 4.5590181 1.9701306 9
2.5114379 1.9848379 -0.85772634 4
5.6307139 4.4500623 0.12527338 0
2.8544629 2.2559373 -0.83996725 5
5.7789836 4.5672426 0.38603002 14
3.2715776 2.5855911 -0.81055659 3
5.6570363 4.4708652 0.63083327 4
3.8915515 3.0755684 -0.78561389 3
5.6705809 4.4815698 0.88745254 4
4.8342443 3.8205967 -0.75656486 3
5.7699108 4.5600724 1.164811 10
5.5335474 4.3732696 -0.61706269 5
5.752986 4.5466962 1.4253432 11
5.7586131 4.5511432 -0.38466927 3
5.7593794 4.5517492 1.6947812 15
5.7703443 4.5604148 -0.1283799 3
5.7579675 4.5506334 1.9665071 11
2.5206614 1.9636948 -0.8561734 3
5.6237836 4.3811498 0.12443566 0
2.8639934 2.231164 -0.83816761 5
5.7855186 4.5071478 0.38435528 13
3.2957437 2.5675147 -0.81208307 4
5.7792711 4.5022807 0.64094335 6
3.9144864 3.0495396 -0.78592676 3
5.6813717 4.426013 0.88428396 5
4.8623648 3.7879744 -0.75680864 4
5.7875805 4.5087538 1.1619952 11
5.5529413 4.3259606 -0.61584246 6
5.7721977 4.4967699 1.4222902 11
5.7807918 4.5034652 -0.38404125 3
5.7648821 4.4910707 1.687133 14
5.7862659 4.50773 -0.12803085 3
5.7728329 4.4972649 1.960813 12
2.5435212 1.9815035 -0.86393797 4
5.619051 4.3774629 0.12433095 0
2.8609188 2.2287688 -0.83726782 5
5.7603092 4.4875088 0.38268051 14
3.2957437 2.5675147 -0.81208307 4
5.7714124 4.4961586 0.64007175 11
3.9409778 3.0701773 -0.79124552 3
5.7267852 4.4613919 0.89135236 7
4.8545351 3.7818744 -0.7555899 3
5.7564144 4.4844742 1.1557379 11
5.5403676 4.3161654 -0.61444801 7
5.7629051 4.489531 1.4200006 11
5.7540073 4.4825988 -0.38226181 3
5.7433596 4.4743042 1.6808343 14
5.7704911 4.4954405 -0.12768181 3
5.763689 4.4901414 1.9577073 13
2.5373735 1.9484028 -0.85720867 3
5.6796093 4.361268 0.12499414 0
2.8887737 2.2182364 -0.84086704 5
5.7804089 4.4386702 0.38194782 14
3.3011308 2.534878 -0.80903012 3
5.790019 4.4460497 0.6386773 12
3.9623153 3.0425897 -0.79124552 3
5.7751107 4.4346023 0.89403349 14
4.9060102 3.7672355 -0.75948977 3
5.7687802 4.4297409 1.1519834 11
5.5514016 4.2628198 -0.61235625 6
5.7785358 4.437232 1.4161843 10
5.7661519 4.4277225 -0.38100576 3
5.7574544 4.4210439 1.6758853 13
5.7795296 4.4379954 -0.12719314 3
5.7611861 4.4239097 1.9463192 13
2.5389056 1.9495792 -0.85772634 4
5.6764369 4.3588324 0.12492432 0
2.8887737 2.2182364 -0.84086704 5
5.7645679 4.426506 0.3809011 15
3.304245 2.5372694 -0.80979335 2
5.7631545 4.4254212 0.63571399 13
3.945081 3.0293558 -0.78780395 3
5.7688131 4.4297662 0.89305854 17
4.8934145 3.7575636 -0.75753987 3
5.7531128 4.4177103 1.1488547 11
5.5545621 4.2652469 -0.61270487 7
5.7489505 4.4145141 1.4089336 10
5.7566471 4.420424 -0.38037774 3
5.7605453 4.4234176 1.6767851 15
5.7604971 4.4233804 -0.12677428 3
5.7336059 4.4027314 1.9370017 11
2.5693989 1.9446313 -0.86342031 4
5.6636772 4.2865143 0.12398189 0
2.9166203 2.2074234 -0.84446627 5
5.7841821 4.377717 0.38016838 16
3.3218777 2.5141397 -0.80979335 3
5.7843771 4.3778648 0.63466811 13
3.9818847 3.0136614 -0.79093266 3
5.7790208 4.3738108 0.88988996 19
4.9147792 3.7197158 -0.75680864 4
5.7664876 4.364325 1.1454132 13
5.5746717 4.219151 -0.61165899 6
5.7639747 4.3624234 1.4051174 11
5.7555156 4.3560214 -0.37828431 3
5.7679782 4.3654532 1.6700367 13
5.7705092 4.3673692 -0.12632051 3
5.750339 4.3521037 1.932343 12
2.5632372 1.939968 -0.86134976 4
5.6652718 4.2877212 0.1240168 0
2.9088509 2.2015433 -0.84221673 5
5.7618861 4.3608427 0.37870297 16
3.3531868 2.5378356 -0.81742573 2
5.7732563 4.3694482 0.63344795 13
3.9818847 3.0136614 -0.79093266 3
5.7505293 4.3522472 0.88550264 19
4.9337735 3.7340915 -0.7597335 4
5.7538867 4.3547883 1.1429102 13
5.5778489 4.2215557 -0.61200762 7
5.7545819 4.3553147 1.4028277 12
5.7411828 4.3451734 -0.37734225 3
5.7477775 4.3501649 1.6641879 15
5.7577529 4.3577147 -0.12604128 3
5.741097 4.3451085 1.9292371 12
2.5853357 1.929859 -0.86445564 4
5.6967893 4.2524457 0.12408661 0
2.9062099 2.1693799 -0.83726782 5
5.7714753 4.3081961 0.37744692 16
3.3479187 2.4990995 -0.81208307 4
5.7701759 4.3072267 0.62996173 10
4.0112824 2.9942763 -0.79280984 3
5.7665415 4.3045135 0.88355273 19
4.9361596 3.6846633 -0.75632113 4
5.7652292 4.3035336 1.1394687 13
5.5929518 4.1749349 -0.61061311 7
5.7534485 4.2947397 1.395577 13
5.7586708 4.2986383 -0.37660953 3
5.7562013 4.2967944 1.6583391 16
5.7624907 4.3014894 -0.12551771 3
5.7558551 4.2965364 1.9245784 11
2.5806913 1.9263922 -0.8629027 4
5.7256336 4.2739773 0.1247149 0
2.9202647 2.1798713 -0.84131694 4
5.7586708 4.2986383 0.37660953 16
3.3605049 2.5084946 -0.81513602 4
5.75421 4.2953081 0.62821859 12
4.0223632 3.0025477 -0.79499996 3
5.7538152 4.2950134 0.88160282 20
4.945704 3.691788 -0.75778359 3
5.7351522 4.2810826 1.1335242 11
5.5801787 4.1654 -0.60921866 7
5.7377157 4.2829962 1.3917608 13
5.741065 4.2854962 -0.37545815 3
5.7499547 4.2921319 1.6565396 16
5.7368512 4.2823505 -0.12495923 3
5.7419224 4.2861362 1.9199197 12
2.5816281 1.8991706 -0.85876161 4
5.7198949 4.2078314 0.12394699 0
2.9448304 2.1663599 -0.84401637 4
5.7676258 4.2429447 0.37524882 15
3.3621211 2.4733391 -0.81131983 4
5.7615876 4.238503 0.62577826 11
4.0416355 2.9732227 -0.79468709 3
5.7724667 4.2465057 0.87989664 17
4.9905453 3.6712866 -0.76070845 4
5.7537618 4.2327456 1.1313341 11
5.5962834 4.1168971 -0.60782415 6
5.7453365 4.2265477 1.3864181 12
5.7692347 4.2441282 -0.37535349 3
5.7578025 4.2357183 1.6502409 16
5.7633858 4.2398257 -0.12488942 3
5.7499189 4.229919 1.9126728 13
2.5909648 1.9060392 -0.86186743 4
5.7037868 4.195982 0.12359794 0
2.9385514 2.1617408 -0.84221673 4
5.7579727 4.2358437 0.37462077 15
3.387424 2.4919531 -0.81742573 4
5.7535634 4.2325997 0.62490666 11
4.0368619 2.9697111 -0.7937485 3
5.742085 4.2241559 0.8752656 20
4.9937434 3.6736393 -0.7611959 4
5.7489882 4.2292337 1.1303954 12
5.5834441 4.1074519 -0.60642964 9
5.7247782 4.2114239 1.3814571 11
5.7434936 4.2251921 -0.37367871 3
5.742105 4.2241707 1.6457419 15
5.7569427 4.235086 -0.1247498 3
5.7328014 4.2173266 1.9069787 14
2.5979519 1.8833691 -0.85979688 4
5.7054176 4.136107 0.12300456 0
2.956727 2.1434608 -0.84311658 4
5.7534461 4.1709251 0.37242267 14
3.4079175 2.4705484 -0.81818897 4
5.7716804 4.1841435 0.62368649 12
4.0590954 2.9426157 -0.79406136 3
5.7601848 4.1758099 0.87355947 18
5.0160537 3.6363568 -0.76070845 4
5.7575822 4.173923 1.1263281 12
5.6055307 4.0636945 -0.60573244 9
5.7476816 4.1667461 1.3799306 14
5.7534461 4.1709251 -0.37242267 3
5.752522 4.1702552 1.6403431 15
5.7734165 4.1854024 -0.12447056 3
5.7511554 4.1692643 1.9033552 13
2.6229773 1.9015111 -0.86807907 5
5.6811323 4.1185017 0.12248099 0
2.956727 2.1434608 -0.84311658 4
5.7356586 4.15803 0.37127128 15
3.3983803 2.4636347 -0.81589925 4
5.7587752 4.1747885 0.62229198 13
4.0782871 2.9565289 -0.7978158 3
5.7408986 4.1618285 0.87063462 20
5.0031962 3.6270359 -0.75875854 4
5.73839 4.1600099 1.1225737 12
5.6023045 4.0613556 -0.60538381 9
5.7349653 4.1575274 1.3768777 14
5.7388926 4.1603746 -0.37148061 2
5.7257004 4.1508107 1.6326947 14
5.7442741 4.1642756 -0.12384228 3
5.7355146 4.1579256 1.8981789 15
2.6141808 1.867432 -0.86083215 5
5.7195096 4.0857139 0.12269042 0
2.9827189 2.1306961 -0.84626585 5
5.7596717 4.1144037 0.37095726 16
3.425082 2.4466968 -0.81818897 4
5.7569771 4.1124787 0.61898011 13
4.1052575 2.9325781 -0.79906726 3
5.7568908 4.1124172 0.86868471 21
5.0526247 3.6093271 -0.76241463 4
5.7415743 4.1014757 1.1175678 13
5.6175513 4.0128808 -0.6039893 9
5.7494726 4.1071181 1.3734431 13
5.7369189 4.0981503 -0.36949185 3
5.7434387 4.1028075 1.6295455 15
5.7569342 4.1124482 -0.12349322 3
5.737679 4.0986934 1.889379 14
2.6283286 1.8775384 -0.86549091 5
5.6869659 4.0624666 0.12199232 0
2.9779618 2.1272979 -0.84491616 5
5.7434196 4.1027942 0.36991054 16
3.425082 2.4466968 -0.81818897 4
5.7375221 4.0985813 0.61688834 12
4.0956135 2.9256887 -0.79719001 3
5.7488146 4.106648 0.86746597 22
5.0623164 3.6162503 -0.76387703 3
5.7351446 4.0968828 1.1163163 13
5.5948544 3.9966669 -0.60154891 9
5.735095 4.0968475 1.3700086 15
5.7352939 4.0969896 -0.36938718 2
5.7323384 4.0948787 1.6263962 15
5.7374082 4.0984998 -0.12307437 3
5.7219591 4.0874639 1.8842026 14
2.6315701 1.8529314 -0.86238503 5
5.7079463 4.0190578 0.1218527 1
2.9955595 2.1092222 -0.84581596 4
5.7646809 4.0590057 0.36949185 17
3.4352355 2.4188054 -0.81666249 4
5.7538838 4.0514035 0.61566818 14
4.1315846 2.909116 -0.80031872 3
5.7571568 4.0537081 0.86454111 22
5.0916834 3.5851374 -0.76460826 4
5.7483616 4.0475149 1.1135005 15
5.6154127 3.9539034 -0.60085171 7
5.7307434 4.03511 1.3623762 14
5.7303867 4.0348587 -0.36729375 2
5.7505183 4.0490336 1.6236967 15
5.7455521 4.045537 -0.12265551 3
5.7354326 4.0384116 1.8795439 15
2.6473658 1.8640534 -0.86756146 5
5.6932306 4.0086966 0.12153856 1
2.9844058 2.1013687 -0.84266663 5
5.7450843 4.0452075 0.3682358 17
3.4480774 2.4278476 -0.81971544 4
5.739222 4.04108 0.61409938 13
4.1348147 2.9113905 -0.80094445 3
5.7295642 4.0342793 0.86039758 24
5.098176 3.5897088 -0.76558322 3
5.7354403 4.0384169 1.1109976 15
5.6088963 3.9493153 -0.60015446 7
5.7211118 4.0283279 1.3600866 15
5.7189555 4.0268097 -0.36656103 2
5.7298045 4.0344486 1.617848 16
5.7308369 4.0351753 -0.12234137 3
5.7243757 4.0306263 1.8759204 14
2.6666639 1.8499306 -0.86963201 5
5.7079334 3.9597344 0.12125932 1
3.0102115 2.088258 -0.84581596 5
5.7469282 3.9867861 0.36656103 17
3.4746215 2.4104307 -0.82200515 4
5.760746 3.9963717 0.61340213 13
4.1599083 2.8858311 -0.80188304 3
5.7478027 3.9873927 0.85893512 24
5.1328988 3.5608184 -0.76704568 4
5.7505093 3.9892702 1.1084946 15
5.6232347 3.9009767 -0.59875995 7
5.7426429 3.983813 1.3585601 15
5.7173896 3.9662943 -0.36467695 2
5.7354136 3.9787982 1.6115494 16
5.7457232 3.9859502 -0.12206213 4
5.7412639 3.9828565 1.8722969 12
2.6444418 1.8345145 -0.86238503 5
5.7079334 3.9597344 0.12125932 1
2.9974022 2.0793719 -0.84221673 5
5.7337999 3.9776785 0.36572367 16
3.4778478 2.4126689 -0.82276839 4
5.7427387 3.9838796 0.61148471 13
4.1712699 2.8937128 -0.80407315 3
5.7347541 3.9783406 0.85698521 25
5.1524711 3.5743964 -0.76997054 4
5.7261634 3.9723809 1.1038016 15
5.6134124 3.8941627 -0.59771407 6
5.7313514 3.9759798 1.3558887 15
5.7042613 3.9571869 -0.36383957 2
5.7274079 3.9732442 1.6092999 17
5.7177916 3.9665732 -0.12146875 3
5.7253909 3.9718451 1.8671206 13
2.6587796 1.8170984 -0.8629027 5
5.7205796 3.9096344 0.12094518 1
3.0311525 2.0715904 -0.8476156 5
5.7581315 3.9352987 0.36551431 18
3.4913647 2.3861148 -0.82200515 4
5.7490273 3.9290762 0.60921866 13
4.1962628 2.8678653 -0.80501175 3
5.7459993 3.927007 0.85454786 23
5.1576324 3.5248976 -0.76704568 4
5.739078 3.922277 1.1009858 14
5.6141429 3.8368919 -0.59492511 6
5.7330351 3.9181466 1.3497828 15
5.7119613 3.9037442 -0.36258352 2
5.7356997 3.9199679 1.603901 17
5.7420421 3.9243026 -0.12139894 3
5.7322459 3.9176073 1.8603913 14
2.6619694 1.8192785 -0.86393797 4
5.7106738 3.9028645 0.12073575 1
3.0327613 2.07269 -0.8480655 5
5.741642 3.9240291 0.36446759 18
3.4978483 2.3905458 -0.82353163 4
5.7358675 3.9200828 0.60782415 15
4.1701684 2.8500319 -0.80000585 3
5.7328882 3.9180465 0.85259795 25
4.7642956 3.256078 -0.70854837 6
5.7309237 3.9167039 1.0994214 13
5.375628 3.673883 -0.56964993 12
5.7152052 3.9059613 1.345585 15
5.6410561 3.8552854 -0.35808262 2
5.7276554 3.9144702 1.6016515 17
5.7271833 3.9141476 -0.12108479 3
5.7099166 3.9023468 1.8531444 16
2.6826179 1.8060446 -0.86652619 4
5.7410994 3.8651352 0.12080555 1
3.0277591 2.0384073 -0.84266663 4
5.7423882 3.866003 0.36279285 16
3.5209663 2.3704538 -0.8250581 4
5.7465677 3.8688166 0.60608101 15
4.2096272 2.8340876 -0.80376029 3
5.7337542 3.8601904 0.84869808 24
4.7622108 3.2061086 -0.70489228 9
5.7482958 3.8699803 1.0975442 13
5.3912292 3.6295888 -0.56860405 29
5.7358203 3.8615811 1.3440585 13
5.4524527 3.6708069 -0.34447527 1
5.7322121 3.8591521 1.5953529 18
5.7510519 3.8718357 -0.12101499 3
5.732213 3.8591526 1.8515915 18
2.6954381 1.8146756 -0.87066728 4
5.7128997 3.8461502 0.12021217 1
3.0390747 2.0460253 -0.84581596 5
5.7208505 3.8515029 0.36143211 15
3.5209663 2.3704538 -0.8250581 4
5.7432623 3.8665912 0.60573244 16
4.2178202 2.8396034 -0.80532461 3
5.7255211 3.8546472 0.8474794 25
4.7539773 3.2005656 -0.7036736 13
5.7220778 3.8523293 1.0925384 18
5.424284 3.6518426 -0.57209027 49
5.7260489 3.8550026 1.3417689 13
5.3911519 3.6295366 -0.3406024 13
5.7144303 3.8471806 1.5904039 18
5.7261701 3.8550842 -0.12049142 3
5.7129827 3.8462062 1.8453798 17
2.7012885 1.7920147 -0.86859673 4
5.7406135 3.8082802 0.12024708 1
3.0545549 2.0263691 -0.84626585 5
5.7352839 3.8047445 0.36069942 16
3.5468357 2.3529446 -0.82734782 2
5.7345824 3.8042793 0.60207188 15
4.237051 2.8108282 -0.80532461 3
5.7400465 3.8079042 0.84577322 27
4.7789607 3.1703272 -0.70416105 13
5.7284141 3.8001873 1.0887839 19
5.4855413 3.6390674 -0.57592517 9
5.737432 3.80617 1.3383343 15
5.4390326 3.6082139 -0.34206781 16
5.7291174 3.8006539 1.5872546 17
5.4406686 3.6092989 -0.11396421 6
5.7245421 3.7976186 1.840721 17
2.7077277 1.7962865 -0.87066728 4
5.6806245 3.7684841 0.11899051 1
3.0707941 2.037142 -0.85076487 5
5.7319551 3.8025365 0.36049005 17
3.5501077 2.3551152 -0.82811105 2
5.7196398 3.7943666 0.60050309 16
4.2386971 2.8119202 -0.80563748 3
5.728467 3.8002226 0.8440671 28
4.7971568 3.1823983 -0.70684218 9
5.7234755 3.7969112 1.0878453 20
5.6266646 3.7326875 -0.59074163 9
5.7210722 3.7953169 1.3345181 15
5.4523473 3.6170468 -0.34290519 8
5.7209978 3.7952676 1.5850052 18
5.4406686 3.6092989 -0.11396421 7
5.7084436 3.7869391 1.8355447 20
2.7088814 1.7699425 -0.86704379 4
5.4925179 3.5887289 0.11452269 4
3.0653644 2.0028632 -0.84536606 5
5.7483296 3.7558727 0.35986203 18
3.566463 2.3302734 -0.82811105 2
5.7326465 3.7456255 0.59910858 15
4.2516098 2.7779384 -0.80438602 3
5.7315927 3.7449367 0.84065473 26
4.8425226 3.1640317 -0.71025455 6
5.7415752 3.7514591 1.0862809 21
5.6592579 3.6976745 -0.59143889 6
5.7227759 3.7391763 1.3287939 17
5.703186 3.7263763 -0.35703591 3
5.7359347 3.7477739 1.5818558 16
5.4992142 3.5931041 -0.11466231 8
5.7218046 3.7385414 1.8314036 17
2.720202 1.7773393 -0.87066728 4
5.4941921 3.5898228 0.11455759 4
3.0588388 1.9985995 -0.84356648 5
5.7098737 3.730746 0.35745457 9
3.5828981 2.341012 -0.83192724 4
5.7326465 3.7456255 0.59910858 16
4.2582245 2.7822602 -0.80563748 3
5.7116508 3.7319071 0.83772987 29
4.8391991 3.1618602 -0.70976704 3
5.7283454 3.7428153 1.083778 21
5.6625938 3.6998539 -0.59178752 6
5.7145581 3.7338068 1.3268857 16
5.6981697 3.723099 -0.35672188 3
5.7163582 3.734983 1.576457 16
5.6465292 3.6893578 -0.11773393 3
5.7153354 3.7343147 1.8293331 17
2.7292948 1.7562149 -0.86963201 4
5.5443439 3.56761 0.11508117 4
3.0792723 1.9814143 -0.84536606 6
5.5359097 3.5621827 0.34499863 6
3.5793424 2.3031936 -0.82734782 4
5.735199 3.6904192 0.59666824 9
4.290834 2.7610159 -0.80814046 3
5.7308874 3.687645 0.83675492 29
5.2651381 3.3879499 -0.7687518 4
5.7177896 3.6792169 1.0768949 19
5.7016892 3.6688569 -0.59318197 6
5.7322307 3.6885092 1.3249776 17
5.7290616 3.68647 -0.35703591 3
5.7226281 3.6823304 1.5710582 17
5.7225971 3.6823103 -0.11878107 3
5.7250204 3.6838698 1.8241566 16
2.7292948 1.7562149 -0.86963201 4
5.6856012 3.6585047 0.11801317 1
3.0858274 1.9856323 -0.84716564 5
5.5543847 3.5740712 0.34615001 6
3.5892482 2.3095677 -0.82963753 4
5.5676503 3.5826068 0.57923704 5
4.2974787 2.7652917 -0.80939192 3
5.7075167 3.6726065 0.83334255 22
5.3435979 3.4384363 -0.78020751 6
5.7011776 3.6685276 1.0737661 17
5.6849346 3.6580756 -0.59143889 7
5.7140698 3.6768234 1.3207799 16
5.7206635 3.6810663 -0.35651255 3
5.7111568 3.6749489 1.5679089 18
5.6990542 3.6671612 -0.11829241 3
5.7055254 3.6713254 1.817945 16
2.7480161 1.7412541 -0.87170255 4
5.7312732 3.6315665 0.11843203 1
3.1078448 1.9692562 -0.84941518 6
5.6804266 3.5993478 0.35243034 6
3.5953343 2.2781491 -0.82734782 5
5.5891595 3.5415175 0.57888842 3
4.3400397 2.7500246 -0.81377208 3
5.6659446 3.5901716 0.82359302 7
5.3725023 3.4042349 -0.78093874 6
5.7233124 3.6265223 1.0731404 18
5.7002358 3.6119001 -0.59039301 7
5.7246742 3.6273851 1.3173453 17
5.7276649 3.6292801 -0.35536113 3
5.7284431 3.6297731 1.5656593 18
5.7278953 3.629426 -0.11836222 3
5.7130666 3.6200302 1.812251 17
2.7349615 1.7329822 -0.86756146 4
5.7110038 3.6187229 0.11801317 1
3.1078448 1.9692562 -0.84941518 6
5.7344131 3.6335561 0.35577983 20
3.6152346 2.2907588 -0.83192724 4
5.6547956 3.5831072 0.58568656 4
4.3183479 2.7362797 -0.80970478 3
5.6156402 3.5582967 0.81628084 5
5.3825636 3.4106097 -0.7824012 6
5.7082949 3.6170065 1.0703247 15
5.6951871 3.6087008 -0.5898701 6
5.701457 3.6126738 1.3120027 17
5.7226038 3.6260731 -0.35504714 3
5.7251506 3.627687 1.5647595 20
5.7143817 3.6208634 -0.11808299 3
5.7032757 3.613826 1.8091451 18
2.7450552 1.713303 -0.86704379 4
5.73211 3.5776482 0.11794336 1
3.1046455 1.9377382 -0.84491616 6
5.7268209 3.5743468 0.35379106 20
3.6407363 2.2723348 -0.83421695 4
5.724689 3.5730164 0.59039301 13
4.3251424 2.699501 -0.80751473 3
5.6683583 3.537858 0.82042444 7
5.3921819 3.3654847 -0.7804513 6
5.7260799 3.5738842 1.0690731 15
5.7111678 3.5645771 -0.5889985 6
5.7159228 3.5675447 1.3097129 16
5.7234321 3.5722318 -0.35358173 3
5.7265663 3.574188 1.558461 21
5.7388959 3.5818832 -0.11808299 3
5.7179089 3.5687845 1.8060393 18
2.7581658 1.721486 -0.87118489 4
5.7253246 3.5734129 0.11780374 1
3.119524 1.9470245 -0.84896529 5
5.7081833 3.5627143 0.35263968 21
3.6274126 2.2640188 -0.831164 4
5.7196188 3.5698516 0.5898701 15
4.3519545 2.7162356 -0.81252062 3
5.7054067 3.5609813 0.82578665 23
5.3989177 3.369689 -0.78142625 8
5.7059708 3.5613334 1.0653187 17
5.7060971 3.5614123 -0.58847558 5
5.702599 3.5592289 1.3066601 16
5.7064891 3.5616567 -0.35253501 3
5.7001157 3.5576792 1.5512625 20
5.7151461 3.5670602 -0.11759432 3
5.7031593 3.5595787 1.8013805 20
2.7585952 1.6951087 -0.86756146 4
5.7399096 3.5270743 0.11759432 1
3.134701 1.9262191 -0.84941518 6
5.7193031 3.5144119 0.35180229 22
3.6431298 2.2386398 -0.831164 4
5.7291236 3.5204465 0.58830124 17
4.3708115 2.6857874 -0.81252062 3
5.7250538 3.5179458 0.82505548 28
5.4087806 3.3236012 -0.77947634 8
5.7189131 3.5141723 1.0631286 19
5.7104511 3.5089726 -0.58638382 5
5.7239623 3.5172751 1.3058968 17
5.7244081 3.517549 -0.35211632 3
5.7131915 3.5106566 1.5481131 19
5.7228723 3.5166051 -0.11724526 3
5.7147031 3.5115855 1.7972394 20
2.766825 1.7001657 -0.87014961 5
5.7194648 3.5145113 0.11717546 1
3.1363614 1.9272393 -0.84986508 5
5.7193031 3.5144119 0.35180229 21
3.6431298 2.2386398 -0.831164 4
5.7189384 3.5141881 0.58725542 17
4.3775434 2.6899242 -0.81377208 3
5.7165971 3.5127494 0.82383674 33
5.4189281 3.3298371 -0.78093874 6
5.7037659 3.5048647 1.0603127 20
5.7138457 3.5110588 -0.58673245 5
5.7005448 3.5028853 1.3005542 16
5.7193031 3.5144119 -0.35180229 3
5.7032299 3.5045352 1.5454137 21
5.7126498 3.5103238 -0.11703584 3
5.6784925 3.4893348 1.7858514 20
2.7835858 1.683808 -0.87170255 4
5.7267509 3.4641466 0.11682641 1
3.148072 1.9042879 -0.84941518 6
5.7317362 3.4671624 0.3510696 23
3.6653888 2.217216 -0.83269048 4
5.7279897 3.464896 0.58568656 18
4.3826942 2.6511185 -0.81126916 3
5.7189007 3.459398 0.82066816 32
4.7473502 2.871701 -0.68124962 1
5.7264051 3.4639373 1.0599999 21
5.7211709 3.4607711 -0.58498937 5
5.7080622 3.4528415 1.2967379 17
5.7249007 3.4630272 -0.35065091 3
5.7275567 3.4646342 1.5454137 21
5.7301731 3.4662166 -0.11689622 3
5.6961021 3.4456072 1.7837808 21
2.7786269 1.6808083 -0.87014961 4
5.7130628 3.4558666 0.11654717 1
3.1530743 1.9073138 -0.85076487 5
5.7078114 3.4526899 0.34960419 23
3.6620293 2.2151837 -0.83192724 5
5.7160563 3.4576774 0.5844664 19
4.3962159 2.6592979 -0.81377208 3
5.7019157 3.4491236 0.81823075 34
4.7405558 2.8675914 -0.68027467 1
5.7044325 3.4506459 1.0559326 22
5.7092376 3.4535527 -0.58376914 5
5.6979828 3.4467447 1.2944483 17
5.69414 3.4444201 -0.3487668 3
5.7008781 3.4484961 1.5382153 19
5.709641 3.4537966 -0.11647736 3
5.6861844 3.4396079 1.7806751 20
2.7985928 1.6663107 -0.87273782 4
5.7198682 3.4056678 0.11619812 1
3.1847312 1.8962215 -0.85571378 6
5.7128992 3.4015183 0.34845281 22
3.6841521 2.1935818 -0.83345371 4
5.7366323 3.4156494 0.58411777 18
4.436739 2.6416795 -0.81783938 3
5.7173276 3.4041553 0.81701207 33
4.8099236 2.8638775 -0.68734312 6
5.7080154 3.3986106 1.0521783 23
5.7263608 3.4095335 -0.58307195 5
5.7134724 3.4018598 1.2925402 18
5.6974545 3.3923223 -0.34751076 3
5.7063956 3.3976462 1.5332664 18
5.7198682 3.4056678 -0.11619812 3
5.6984396 3.392909 1.7770516 18
2.793613 1.6633457 -0.87118489 4
5.7198682 3.4056678 0.11619812 1
3.1646385 1.884258 -0.85031497 6
5.7043185 3.3964095 0.34792945 23
3.687526 2.1955905 -0.83421695 4
5.7143774 3.4023986 0.58185172 18
4.4265552 2.6356161 -0.8159622 3
5.7087994 3.3990774 0.8157934 34
5.4171338 3.2254167 -0.77411407 8
5.6876478 3.3864837 1.0484238 23
5.7006822 3.3942442 -0.58045727 5
5.7050381 3.3968377 1.290632 19
5.6957383 3.3913007 -0.34740609 3
5.699698 3.3936584 1.5314667 20
5.6923766 3.3892992 -0.11563964 3
5.69346 3.3899441 1.7754986 20
2.801537 1.6423378 -0.87014961 5
5.7187653 3.3524969 0.11570945 1
3.1992457 1.8754855 -0.85616374 6
5.7169671 3.3514426 0.34730139 24
3.6888359 2.1624966 -0.831164 4
5.7167783 3.3513322 0.57976002 18
4.4682503 2.6194108 -0.82034236 3
5.7163911 3.351105 0.81359977 33
4.9320569 2.8913069 -0.70196742 6
5.7003422 3.3416967 1.0465466 22
5.7116218 3.3483093 -0.57923704 5
5.7077031 3.3460119 1.2860526 18
5.7031827 3.3433619 -0.34646404 3
5.7108974 3.3478847 1.5283175 20
5.7049642 3.3444064 -0.11543021 3
5.7014031 3.3423185 1.7708399 21
2.8115366 1.6481998 -0.87325543 4
5.6877131 3.3342934 0.11508117 1
3.1925211 1.8715434 -0.8543641 5
5.7100749 3.3474023 0.34688273 23
3.7159348 2.1783829 -0.83726984 4
5.7013092 3.3422635 0.57819122 17
4.4478006 2.6074226 -0.81658792 3
5.7026911 3.3430736 0.8116498 33
4.921782 2.8852832 -0.70050496 9
5.6935258 3.3377008 1.0452951 22
5.6944337 3.338233 -0.57749397 5
5.695847 3.3390617 1.2833813 20
5.6893988 3.3352814 -0.34562665 3
5.7024918 3.3429568 1.526068 21
5.6877131 3.3342934 -0.11508117 3
5.6880703 3.3345027 1.7666988 18
2.8213012 1.6275662 -0.87273782 4
5.7108521 3.2945046 0.11508117 1
3.1987572 1.8453149 -0.85256451 5
5.7090845 3.2934849 0.34541732 24
3.7242498 2.1484637 -0.83574343 4
5.7176003 3.2983973 0.57749397 17
4.4795842 2.5842047 -0.81909084 3
5.7035375 3.2902849 0.80848122 34
5.0174623 2.8944983 -0.7112295 6
5.7081332 3.2929361 1.0437307 21
4.9582448 2.8603368 -0.50079691 1
5.6918101 3.2835195 1.2772754 20
5.6952443 3.2855005 -0.34457994 3
5.7071228 3.2923532 1.521119 21
5.7073879 3.2925062 -0.11501136 3
5.7011704 3.2889194 1.763593 18
2.8179545 1.6256355 -0.87170255 5
5.6935306 3.284512 0.11473212 1
3.2055092 1.8492099 -0.8543641 5
5.6900539 3.2825065 0.34426591 22
3.7140465 2.1425774 -0.83345371 4
5.7158742 3.2974019 0.57731962 18
4.4864283 2.5881529 -0.82034236 3
5.698379 3.2873089 0.80774999 37
5.4284196 3.1315734 -0.76948303 9
5.6910224 3.2830651 1.0406021 21
4.939261 2.8493853 -0.49887946 6
5.685008 3.2795954 1.275749 20
5.688324 3.2815084 -0.34416124 3
5.6818027 3.2777464 1.5143704 26
5.6866021 3.2805152 -0.1145925 3
5.6944771 3.285058 1.7615224 18
2.8359551 1.6097376 -0.8737731 5
5.7232785 3.2486327 0.11487174 1
3.2420673 1.8402539 -0.86066276 5
5.7006726 3.2358012 0.34353322 19
3.7459877 2.1262879 -0.83726984 4
5.7144971 3.2436483 0.57487929 16
4.5198488 2.5655451 -0.82315814 3
5.709105 3.2405877 0.80604386 36
5.4380651 3.0867405 -0.76777685 9
5.6949062 3.2325282 1.0371605 22
4.9399729 2.8040149 -0.49696204 8
5.6992283 3.2349813 1.2738409 18
5.7076206 3.2397451 -0.34395191 3
5.6875997 3.2283807 1.5098715 21
5.7058878 3.2387614 -0.11452269 3
5.6954312 3.232826 1.7547932 23
2.8241947 1.6030622 -0.87014961 5
5.6902361 3.2298772 0.11420855 2
3.238678 1.83833 -0.85976291 5
5.7006726 3.2358012 0.34353322 23
3.7459877 2.1262879 -0.83726984 4
5.695437 3.2328296 0.57296187 17
4.4975157 2.5528684 -0.81909084 3
5.7004733 3.235688 0.80482513 33
5.4311595 3.0828209 -0.76680189 8
5.6845989 3.2266774 1.0352833 23
4.9295769 2.7981138 -0.49591619 1
5.6923985 3.2311049 1.2723144 18
4.9173079 2.7911499 -0.29632619 3
5.6757364 3.221647 1.5067222 22
5.6919751 3.2308643 -0.11424346 3
5.6735902 3.2204287 1.7480638 23
2.8488107 1.5908417 -0.8742907 5
5.6969328 3.1812987 0.1138944 1
3.2378213 1.8080742 -0.85616374 5
5.7144051 3.1910558 0.34300986 22
3.7538841 2.0962555 -0.83574343 4
5.7091699 3.1881323 0.57209027 18
4.5221272 2.5252602 -0.82034236 3
5.7038589 3.1851664 0.80214399 32
5.4456167 3.0409582 -0.76582694 9
5.7035375 3.1849871 1.0346576 22
5.6969929 3.1813326 -0.5708701 5
5.6942477 3.1797996 1.267735 22
4.9296989 2.7528577 -0.2959075 11
5.6929851 3.1790943 1.5053724 21
5.7108998 3.1890986 -0.11417364 3
5.6925611 3.1788578 1.7470286 23
2.8420639 1.5870742 -0.87222016 4
5.6969328 3.1812987 0.1138944 1
3.232717 1.8052239 -0.85481399 4
5.6917357 3.1783967 0.34164912 23
3.7847378 2.1134851 -0.8426125 4
5.7004724 3.1832755 0.57121873 18
4.5428233 2.5368176 -0.82409674 3
5.6847939 3.1745203 0.79946291 33
5.4282846 3.0312796 -0.76338959 11
5.688015 3.1763191 1.0318418 24
5.7004724 3.1832755 -0.57121873 5
5.6891055 3.176928 1.2665901 20
4.9279552 2.751884 -0.29580283 10
5.6657619 3.1638925 1.4981741 21
5.6969328 3.1812987 -0.1138944 3
5.6824412 3.1732066 1.7439227 24
2.8632338 1.5727748 -0.87532604 5
5.7049818 3.1337476 0.11361516 2
3.2554891 1.7882408 -0.85751343 5
5.6997819 3.1308911 0.34081176 23
3.77531 2.0737784 -0.83726984 2
5.7190638 3.1414828 0.5708701 19
4.5690799 2.5097964 -0.82566112 3
5.6946383 3.1280658 0.79775673 34
5.4284363 2.9818408 -0.76046473 9
5.7083197 3.135581 1.0315288 25
5.7085862 3.1357274 -0.56982422 5
5.6973801 3.1295719 1.2635372 21
4.9820576 2.736645 -0.29789627 1
5.679172 3.11957 1.4959245 20
4.9075112 2.6956968 -0.097733475 2
5.6824441 3.1213675 1.7371935 20
2.8581541 1.5699846 -0.8737731 5
5.703229 3.1327848 0.11358026 2
3.2640293 1.7929318 -0.85976291 5
5.6857772 3.1231985 0.33997437 23
3.7821929 2.0775592 -0.83879632 4
5.701601 3.1318905 0.56912702 19
4.5690799 2.5097964 -0.82566112 3
5.6946383 3.1280658 0.79775673 34
5.4353957 2.9856637 -0.76143968 9
5.6754236 3.1175113 1.0255843 24
5.6806459 3.1203797 -0.56703526 5
5.6956592 3.1286266 1.2631556 23
5.6857772 3.1231985 -0.33997437 4
5.6740479 3.1167555 1.4945748 21
4.9180274 2.7014732 -0.097942904 3
5.6570454 3.1074162 1.7294289 22
2.8687744 1.5504935 -0.8737731 5
5.6945148 3.0777283 0.11298688 1
3.2864439 1.7762324 -0.86246234 5
5.696362 3.0787268 0.33934635 24
3.7858839 2.0461659 -0.83650666 2
5.7035065 3.0825882 0.5672096 19
4.5808439 2.4758201 -0.82472253 4
5.7070665 3.0845122 0.79653805 37
5.4381289 2.9391587 -0.75900227 8
5.6860857 3.0731726 1.0237072 24
5.7105179 3.0863774 -0.5679068 5
5.6960974 3.0785837 1.2585762 23
5.7033901 3.0825253 -0.33976504 4
5.684845 3.0725021 1.4918754 21
4.9239874 2.6612794 -0.097698569 2
5.6729674 3.0660825 1.7278759 21
2.8755724 1.5541676 -0.87584364 5
4.9116731 2.654624 0.097454235 3
3.2898726 1.7780855 -0.86336213 5
5.7033901 3.0825253 0.33976504 24
3.7962468 2.0517669 -0.83879632 4
5.6947427 3.0778515 0.566338 18
4.6051731 2.4889693 -0.82910264 4
5.6930957 3.0769613 0.79458815 37
5.4259043 2.9325519 -0.75729609 9
5.6791344 3.0694156 1.0224557 27
5.6982484 3.0797462 -0.56668663 5
5.6822801 3.071116 1.2555232 23
5.6823058 3.0711296 -0.33850896 4
5.681416 3.0706489 1.4909756 21
5.6839595 3.0720236 -0.11277745 3
5.671268 3.0651641 1.7273583 22
2.8929076 1.5381862 -0.87791419 5
4.9313941 2.6220686 0.097489141 8
3.2881343 1.748332 -0.85976291 5
5.7013149 3.0314429 0.3384043 25
3.8205254 2.0314093 -0.84108603 2
5.7120428 3.0371468 0.56598938 18
4.59759 2.444582 -0.82472253 3
5.6928749 3.0269554 0.79166323 39
5.4229541 2.883436 -0.7541275 9
5.7016397 3.0316155 1.0227685 28
5.7085242 3.0352762 -0.56564075 5
5.6943855 3.0277586 1.2536151 24
5.6819167 3.0211287 -0.33725291 4
5.6798177 3.0200126 1.4851269 23
5.6959105 3.0285692 -0.11260293 3
5.681766 3.0210485 1.7242525 22
2.9065533 1.5454417 -0.88205528 5
4.9437532 2.6286404 0.097733475 7
3.2984581 1.7538213 -0.86246234 5
5.6801534 3.020191 0.33714822 25
3.8101246 2.0258791 -0.83879632 2
5.7050061 3.0334055 0.56529212 19
4.6080551 2.4501464 -0.82659972 3
5.685864 3.0232277 0.79068828 39
5.3756304 2.8582735 -0.74754655 13
5.6737332 3.0167775 1.0177627 25
5.6997285 3.0305994 -0.56476921 5
5.6701174 3.0148549 1.2482724 28
5.6695724 3.0145652 -0.3365202 4
5.6643319 3.0117786 1.4810778 24
5.6782541 3.0191813 -0.11225387 3
5.6612973 3.0101652 1.7180408 22
2.8933034 1.5125824 -0.87480837 5
5.0293255 2.6292677 0.099059857 3
3.3071675 1.7289455 -0.86156255 5
3.834614 2.0046878 -0.84108603 4
5.7048559 2.9824266 0.56320041 19
4.633801 2.4224925 -0.82816404 3
5.6962762 2.9779413 0.78922588 39
5.3884172 2.8169963 -0.7465716 13
5.6789007 2.9688575 1.0149468 27
5.694262 2.9768882 -0.56215453 5
5.6892867 2.9742873 1.2478908 27
5.6993294 2.9795375 -0.33704355 4
5.6886735 2.9739668 1.4819776 25
5.6743832 2.966496 -0.11176521 4
5.6770377 2.9678836 1.7164879 20
2.9052875 1.5188476 -0.87843186 4
5.0594516 2.6450174 0.099653244 4
3.3278913 1.7397796 -0.86696136 5
4.931159 2.5779476 0.29161596 2
3.8415735 2.0083261 -0.8426125 2
5.6801367 2.9695036 0.56076002 18
4.63205 2.4215775 -0.82785118 3
5.6874804 2.9733429 0.7880072 36
5.4007316 2.8234341 -0.74827778 11
5.664896 2.9615359 1.0124439 27
5.4558973 2.8522742 -0.5386225 5
5.6666689 2.9624629 1.2429298 28
5.6869397 2.9730604 -0.33631086 4
5.6783118 2.9685497 1.4792781 27
5.6637506 2.9609373 -0.11155578 4
5.6667657 2.9625137 1.7133821 21
2.9106655 1.4958789 -0.87687892 5
5.0884652 2.6151159 0.099862672 5
3.3226237 1.7075967 -0.86246234 5
4.9508128 2.5443721 0.29172063 1
3.8555005 1.9814581 -0.8426125 2
4.6576276 2.3936956 -0.82941556 3
5.6851468 2.9217687 0.78483856 18
5.423842 2.7874763 -0.74876523 9
5.6819191 2.9201097 1.0118182 24
5.3782134 2.7640264 -0.52903533 9
5.6662588 2.9120615 1.2383504 28
5.6844635 2.9214175 -0.33495012 4
5.6832986 2.9208186 1.475229 26
5.6931763 2.9258952 -0.11173031 3
5.673564 2.9158158 1.709241 28
2.922693 1.5020602 -0.8805024 5
5.1169224 2.629741 0.10042115 4
3.3226237 1.7075967 -0.86246234 5
5.6897931 2.9241564 0.33526415 16
3.848516 1.9778686 -0.84108603 2
4.9192491 2.5281506 0.48388869 11
4.6664124 2.3982103 -0.83097988 3
5.4097176 2.7802172 -0.74681532 8
5.6766486 2.9174011 1.0108795 25
5.4437799 2.7977228 -0.53548491 5
5.6557817 2.906677 1.2360606 25
5.6365013 2.8967681 -0.33212397 4
5.6624994 2.9101295 1.4698302 26
5.6842837 2.921325 -0.11155578 4
5.6684093 2.9131668 1.7076881 23
2.9244864 1.4772644 -0.87791419 4
5.1744242 2.6137898 0.10118905 4
3.3449004 1.6896307 -0.86516178 5
5.6619349 2.8600492 0.33243799 13
3.8902681 1.9651158 -0.84719193 2
4.9421139 2.4964414 0.48441163 13
4.6865678 2.3673556 -0.83160561 3
5.0445004 2.5481606 0.69392407 1
5.4254513 2.7405927 -0.74632788 8
5.6810083 2.869684 1.0080637 24
5.6730275 2.8656523 -0.55605364 5
5.6689267 2.8635809 1.2345341 25
5.3802643 2.717767 -0.31589982 8
5.6670232 2.8626194 1.4657811 30
5.6831207 2.8707509 -0.11113692 3
5.6851602 2.8717811 1.7066528 23
2.9262106 1.4781353 -0.87843186 4
5.167285 2.6101832 0.10104943 2
3.3396821 1.6869949 -0.86381203 5
5.6637177 2.8609498 0.33254266 21
3.9042871 1.9721973 -0.85024488 1
4.9314437 2.4910514 0.48336574 6
4.7024364 2.3753715 -0.83442146 3
5.6788282 2.8685825 0.78118247 22
5.4148202 2.7352226 -0.74486542 8
5.6616135 2.8598866 1.0046221 23
5.6748056 2.8665507 -0.55622792 5
5.6724315 2.8653512 1.2352974 28
5.3642197 2.7096624 -0.3149578 9
5.6513686 2.8547115 1.4617319 26
5.6706266 2.8644395 -0.11089259 4
5.6644678 2.8613286 1.7004411 26
2.9275529 1.4538869 -0.87584364 4
5.1688128 2.5669456 0.10073529 3
3.366796 1.6720245 -0.86786115 5
5.6776938 2.8196669 0.33222866 18
3.8930037 1.9333508 -0.84490222 1
4.9482851 2.4574268 0.48336574 14
4.7184958 2.3433082 -0.83442146 3
5.6911106 2.8263299 0.78020751 37
5.4208674 2.6921213 -0.74315923 9
5.6809487 2.8212833 1.0046221 22
5.6727729 2.8172231 -0.55413622 5
5.6689448 2.8153222 1.2303364 26
5.5667872 2.7645884 -0.325739 4
5.6689234 2.8153114 1.461282 24
5.5073109 2.7350512 -0.1073323 5
5.6595898 2.8106761 1.6931942 26
2.9379344 1.4590425 -0.87894946 4
5.1920958 2.5785084 0.10118905 4
3.3633053 1.6702909 -0.86696136 5
5.63834 2.800123 0.32992586 18
3.9281709 1.9508156 -0.85253459 1
4.9357944 2.4512234 0.48214558 6
4.7008038 2.334522 -0.83129275 3
5.6679978 2.8148515 0.77703893 37
5.4226451 2.6930041 -0.74340302 9
5.673872 2.8177688 1.0033706 25
5.6745572 2.8181093 -0.5543105 5
5.6566367 2.8092093 1.2276651 24
5.6562281 2.8090065 -0.33097258 4
5.6654329 2.8135779 1.4603822 25
5.3317933 2.6478853 -0.10391163 2
5.6509385 2.8063798 1.690606 25
2.9549935 1.4418851 -0.88102001 4
5.2027822 2.5386906 0.10104943 4
3.3836408 1.6510431 -0.8692109 4
4.9307871 2.4059711 0.28753373 5
3.9593384 1.9319539 -0.85635078 1
5.672606 2.7679403 0.55221879 14
4.7347403 2.3103101 -0.83442146 3
5.6678863 2.7656374 0.7743578 38
5.4234734 2.6463764 -0.7409656 9
5.675652 2.7694268 1.000242 25
5.6887212 2.7758038 -0.55378759 5
5.6637597 2.763624 1.2249937 26
5.6685209 2.7659471 -0.33055389 4
5.662169 2.7628479 1.4545336 26
5.2297392 2.5518444 -0.10157301 1
5.6651845 2.7643192 1.6890531 30
2.9549935 1.4418851 -0.88102001 4
5.0877638 2.4825673 0.098815523 5
3.3818896 1.6501884 -0.86876094 4
4.9236073 2.4024677 0.28711507 6
3.9346368 1.9199008 -0.85100812 1
