# .PCD v0.7 - Point Cloud Data file format
VERSION 0.7
FIELDS x y z intensity
SIZE 4 4 4 4
TYPE F F F F
COUNT 1 1 1 1
WIDTH 1392
HEIGHT 1
VIEWPOINT 0 0 0 1 0 0 0
POINTS 1392
DATA ascii
-3.2084105 3.1156878 -0.86932576 3
-4.9569321 4.8136768 0.60451221 10
-3.860261 3.7486999 -0.85225499 6
-4.9672594 4.8237057 0.85016054 16
-4.8504829 4.7103047 -0.83017397 4
-4.9627876 4.8193636 1.095667 17
-4.9712253 4.8275571 -0.60625535 22
-4.9605012 4.8171434 1.3440585 12
-4.9661818 4.8226595 -0.36279285 30
-4.9671674 4.8236165 1.5985022 13
-4.9550247 4.8118248 -0.12056123 23
-4.9587674 4.8154597 1.8521091 12
-2.3990014 2.3296704 -0.89603156 5
-4.9794126 4.8355079 0.12115461 16
-2.7527025 2.6731498 -0.88585722 4
-4.9833755 4.8393564 0.3640489 10
-3.2224948 3.129365 -0.87314194 3
-4.9783721 4.8344975 0.60712689 11
-3.8375869 3.726681 -0.84724909 6
-4.9815001 4.8375354 0.85259795 16
-4.8276973 4.6881776 -0.82627416 4
-4.9826279 4.8386302 1.1000471 15
-4.9855185 4.8414378 -0.60799849 22
-4.9788108 4.8349237 1.3490196 11
-4.9733458 4.8296165 -0.36331621 27
-4.9811473 4.8371925 1.6030012 13
-4.9851508 4.8410802 -0.12129422 23
-4.9795561 4.8356476 1.8598737 13
-2.4023623 2.3649194 -0.90327847 4
-4.9649091 4.8875265 0.12160837 15
-2.7455533 2.7027614 -0.88945645 4
-4.9588599 4.8815718 0.36467695 10
-3.194124 3.1443408 -0.87123388 3
-4.9652276 4.8878403 0.60956728 11
-3.8318398 3.7721171 -0.85162926 6
-4.9583597 4.8810792 0.85430408 16
-4.7900157 4.7153592 -0.8252992 4
-4.9622464 4.8849058 1.102863 15
-4.9794259 4.9018173 -0.61131036 24
-4.9639735 4.8866057 1.3539807 11
-4.9716697 4.8941822 -0.365619 27
-4.9578276 4.8805556 1.6061505 13
-4.9634838 4.8861237 -0.12157346 23
-4.9713068 4.8938246 1.8691912 13
-2.3941021 2.3567879 -0.90017265 4
-4.9848599 4.9071665 0.12209704 13
-2.7511084 2.70823 -0.89125609 4
-4.9787865 4.9011879 0.36614236 10
-3.1871285 3.1374545 -0.86932576 3
-4.9808459 4.9032149 0.61148471 11
-3.8374708 3.7776604 -0.85288072 6
-4.9781647 4.9005756 0.85771644 15
-4.8183088 4.7432113 -0.83017397 4
-4.9791393 4.901535 1.1066175 15
-4.9950442 4.9171925 -0.61322778 22
-4.982162 4.9045105 1.3589417 11
-4.9915962 4.9137979 -0.36708438 27
-4.9744925 4.8969607 1.6115494 13
-4.972034 4.8945408 -0.12178289 23
-4.9823203 4.9046664 1.8733323 13
-2.3635063 2.3602085 -0.89499629 4
-4.9680123 4.9610806 0.1225508 15
-2.7289004 2.7250929 -0.8903563 4
-4.9563065 4.9493909 0.36708438 11
-3.1451473 3.1407588 -0.86398315 3
-4.9526811 4.9457707 0.61235625 12
-3.8131359 3.8078153 -0.85350645 6
-4.9682536 4.9613214 0.86210376 16
-4.7842441 4.7775688 -0.83017397 4
-4.9593129 4.9523935 1.110059 17
-4.9822869 4.9753356 -0.61601681 22
-4.9580522 4.9511342 1.3619946 11
-4.9690256 4.9620924 -0.36802644 24
-4.9641447 4.9572182 1.6196476 13
-4.9665971 4.9596677 -0.12251589 21
-4.9580317 4.9511142 1.8774734 13
-2.377176 2.3738592 -0.90017265 5
-4.9765024 4.9695587 0.12276023 13
-2.7261426 2.7223389 -0.88945645 4
-4.9760923 4.9691491 0.36854979 11
-3.1479256 3.1435335 -0.86474639 3
-4.9724183 4.9654803 0.61479664 12
-3.7851803 3.7798989 -0.84724909 8
-4.9851093 4.9781537 0.86502862 16
-4.7477231 4.7410989 -0.82383674 4
-4.9774842 4.9705391 1.1141262 15
-4.990746 4.9837823 -0.61706269 22
-4.9677768 4.960845 1.364666 10
-4.9845715 4.9776168 -0.36917785 24
-4.9862075 4.97925 1.6268461 12
-4.9963121 4.9893408 -0.1232489 23
-4.9799037 4.9729552 1.8857555 12
-2.3505166 2.3785801 -0.89603156 5
-4.9631119 5.0223675 0.1232489 15
-2.6998091 2.7320426 -0.88675708 4
-4.9556613 5.0148277 0.36949185 11
-3.1187279 3.1559632 -0.86245668 3
-4.9631844 5.0224414 0.61775988 11
-3.7600279 3.8049197 -0.84724909 6
-4.9659367 5.0252261 0.86746597 16
-4.7161751 4.7724824 -0.82383674 4
-4.9680133 5.0273275 1.1194451 15
-4.97999 5.0394473 -0.61985165 22
-4.9609857 5.020216 1.3719167 11
-4.9598727 5.0190897 -0.36980587 27
-4.9667721 5.0260715 1.631345 12
-4.9729509 5.0323238 -0.12349322 23
-4.9644651 5.023737 1.8924849 12
-2.3613799 2.3895729 -0.90017265 4
-4.9870067 5.0465479 0.12384228 16
-2.7080276 2.7403593 -0.88945645 4
-4.9711037 5.0304546 0.37064323 11
-3.127008 3.1643419 -0.86474639 3
-4.9827909 5.0422816 0.62020028 11
-3.7697475 3.8147552 -0.84943914 6
-4.9812851 5.0407581 0.87014711 16
-4.7524533 4.8091936 -0.83017397 4
-4.9860635 5.0455933 1.1235124 15
-4.9911933 5.0507846 -0.62124616 22
-4.9830651 5.0425591 1.3780226 11
-4.9767194 5.0361376 -0.37106192 27
-4.9804697 5.0399327 1.6358441 12
-4.9870067 5.0465479 -0.12384228 23
-4.9875493 5.0470967 1.9012847 11
-2.34464 2.4060001 -0.90017265 5
-4.9711924 5.1012902 0.12433095 16
-2.6997108 2.7703633 -0.89305568 4
-4.9511967 5.080771 0.37179464 11
-3.0966194 3.177659 -0.86245668 3
-4.9613733 5.0912137 0.62194335 12
-3.749917 3.8480535 -0.85100347 8
-4.9681396 5.0981579 0.87404692 15
-4.7187629 4.8422546 -0.83017397 4
-4.9603682 5.0901828 1.1257024 15
-4.9724975 5.1026292 -0.62333786 24
-4.9696631 5.099721 1.3841285 12
-4.9693174 5.0993662 -0.37315536 27
-4.960124 5.089932 1.640793 10
-4.9642143 5.0941296 -0.12415642 23
-4.9602823 5.0900946 1.9043906 11
-2.3325057 2.393548 -0.89551389 5
-4.9837532 5.1141796 0.12464508 15
-2.6969907 2.7675719 -0.89215589 5
-4.9804692 5.1108093 0.37399274 11
-3.1062107 3.1875012 -0.86512798 3
-4.9669352 5.0969214 0.62264061 11
-3.7595675 3.8579566 -0.85319358 8
-4.987536 5.1180611 0.87745929 16
-4.7187629 4.8422546 -0.83017397 4
-4.9782906 5.1085739 1.1297697 14
-4.9780593 5.1083369 -0.62403512 22
-4.9833651 5.1137815 1.3879446 11
-4.9860449 5.1165309 -0.37441143 27
-4.9750843 5.1052842 1.6457419 11
-4.9753795 5.1055865 -0.12443566 23
-4.9656754 5.0956287 1.9064611 11
-2.3170774 2.4111664 -0.89603156 4
-4.9603987 5.1618247 0.12495923 15
-2.6722028 2.7807124 -0.8903563 4
-4.9668102 5.1684966 0.37566748 11
-3.0906839 3.2161868 -0.8670361 3
-4.9560804 5.1573315 0.62577826 12
-3.7079053 3.8584714 -0.84756196 6
-4.9626875 5.1642065 0.87940919 15
-4.6848431 4.8750796 -0.83017397 4
-4.9644046 5.1659932 1.1347756 15
-4.9671249 5.1688237 -0.62717271 22
-4.9570651 5.1583557 1.3906159 10
-4.9668102 5.1684966 -0.37566748 27
-4.9636269 5.165184 1.6538402 13
-4.959013 5.1603827 -0.12492432 23
-4.9594293 5.1608157 1.9178492 11
-2.3197546 2.4139524 -0.89706683 4
-4.9742546 5.1762428 0.12530828 13
-2.6695023 2.7779021 -0.88945645 5
-4.9861846 5.1886578 0.37713289 11
-3.0974855 3.2232647 -0.86894417 3
-4.9823108 5.1846266 0.62909013 12
-3.7188551 3.8698659 -0.85006487 6
-4.9750667 5.1770883 0.88160282 15
-4.6490808 4.8378654 -0.82383674 4
-4.9863043 5.1887822 1.1397815 15
-4.9919744 5.1946826 -0.63031036 22
-4.9801908 5.1824207 1.3971034 10
-4.9778814 5.180017 -0.37650487 24
-4.9852314 5.1876655 1.6610386 13
-4.9894958 5.1921034 -0.12569223 23
-4.9808464 5.1831026 1.9261314 11
-2.3152804 2.4449191 -0.9022432 4
-4.9568019 5.2343464 0.12583186 13
-2.6450479 2.7931509 -0.88810676 5
-4.9548826 5.2323198 0.37765625 11
-3.0508261 3.2216499 -0.86245668 3
-4.9633512 5.2412624 0.63153052 12
-3.6795218 3.8855479 -0.84756196 6
-4.9601874 5.2379212 0.88574636 16
-4.6489811 4.9092898 -0.83017397 4
-4.9657922 5.2438402 1.1438488 17
-4.9729409 5.251389 -0.63275069 22
-4.9663668 5.2444468 1.4039726 12
-4.9644957 5.2424712 -0.37838897 24
-4.95645 5.2339745 1.6641879 15
-4.9664268 5.2445102 -0.12607618 23
-4.9613152 5.2391124 1.9333782 12
-2.309967 2.4393084 -0.90017265 4
-4.9856763 5.2648377 0.12656485 16
-2.6490676 2.7973959 -0.88945645 5
-4.9727359 5.2511721 0.379017 11
-3.0427265 3.2130969 -0.86016697 3
-4.9729409 5.251389 0.63275069 13
-3.6713722 3.8769419 -0.84568471 6
-4.9874859 5.2667484 0.89062119 20
-4.6489811 4.9092898 -0.83017397 4
-4.9820914 5.2610521 1.1476033 28
-4.9948602 5.2745357 -0.63553965 22
-4.9933653 5.2729573 1.411605 20
-4.978229 5.2569733 -0.37943569 24
-4.9765491 5.255199 1.6709365 22
-4.9760518 5.254674 -0.12632051 23
-4.967957 5.2461262 1.9359665 18
-2.2757409 2.4370201 -0.89344335 5
-4.9651775 5.3170538 0.1269837 26
-2.6268137 2.812973 -0.88855666 4
-4.9618545 5.3134956 0.38100576 22
-3.0229008 3.2371304 -0.8609302 3
-4.9511166 5.3019962 0.63466811 23
-3.6523061 3.9111409 -0.84756196 6
-4.9736285 5.3261037 0.89476472 33
-4.6145949 4.9416261 -0.83017397 4
-4.956027 5.3072553 1.1501062 35
-4.9687943 5.3209271 -0.63693416 46
-4.9376726 5.2876 1.4062623 21
-4.9604912 5.3120356 -0.3809011 24
-4.9370799 5.2869649 1.6700367 26
-4.9542589 5.3053617 -0.12670447 21
-4.9193449 5.2679729 1.9313077 20
-2.2744224 2.4356081 -0.89292568 4
-4.9610829 5.3126693 0.12687899 32
-2.6268137 2.812973 -0.88855666 4
-4.9618545 5.3134956 0.38100576 23
-3.0403202 3.255784 -0.86589122 3
-4.9429574 5.2932591 0.63362223 22
-3.6307347 3.8880408 -0.842556 6
-4.9478865 5.2985373 0.89013368 31
-4.6145949 4.9416261 -0.83017397 4
-4.9385004 5.288486 1.1460389 29
-4.9715137 5.3238392 -0.63728279 49
-4.9175735 5.2660766 1.400538 20
-4.9713964 5.3237138 -0.38173845 22
-4.9211192 5.2698736 1.6646378 24
-4.9665422 5.3185158 -0.12701862 10
-4.9008856 5.2482061 1.9240608 20
-2.2634554 2.4563215 -0.89499629 4
-4.9121885 5.33075 0.12652995 28
-2.6014969 2.8231673 -0.88630718 5
-4.9062037 5.3242555 0.37943569 21
-3.0000348 3.2556639 -0.86054856 3
-4.9009919 5.3185997 0.63275069 20
-3.6155775 3.9236565 -0.84505898 6
-4.8897681 5.3064194 0.88599014 30
-4.5467448 4.9341674 -0.82383674 4
-4.8872542 5.3036909 1.1422845 26
-4.9212441 5.3405776 -0.63536537 46
-4.8665752 5.28125 1.3959587 19
-4.9265051 5.3462868 -0.38100576 13
-4.8741751 5.2894979 1.6605887 22
-4.9203191 5.3395734 -0.12673938 10
-4.8659706 5.2805943 1.9240608 20
-2.2844012 2.4790521 -0.90327847 4
-4.9013476 5.3189855 0.12625071 28
-2.6080997 2.8303328 -0.88855666 4
-4.8886089 5.3051615 0.37807494 22
-3.0239818 3.2816515 -0.86741769 3
-4.8942413 5.3112736 0.63187915 20
-3.6021914 3.9091296 -0.84193027 8
-4.8790069 5.2947412 0.88404024 24
-4.5386734 4.9254084 -0.82237434 4
-4.8792224 5.2949748 1.1404072 26
-4.9198942 5.3391123 -0.63519102 38
-4.8825397 5.2985749 1.400538 19
-4.907557 5.3257241 -0.37954035 13
-4.8820987 5.2980962 1.6632881 20
-4.9135437 5.3322206 -0.12656485 12
-4.8934622 5.3104281 1.9349312 18
-2.2484183 2.4753156 -0.89603156 5
-4.86585 5.3568826 0.12632051 26
-2.5772974 2.8373833 -0.88495743 5
-4.8572359 5.3473992 0.3785983 19
-2.9674208 3.2668755 -0.85787725 3
-4.8654871 5.3564835 0.63309932 18
-3.5820954 3.9435794 -0.84380752 6
-4.8636837 5.3544984 0.88818377 27
-4.5113206 4.9665766 -0.82383674 4
-4.8624587 5.3531494 1.1454132 24
-4.8735247 5.3653326 -0.6341452 38
-4.8656197 5.3566298 1.4066439 19
-4.8693218 5.3607049 -0.37954035 30
-4.8584743 5.348763 1.668237 19
-4.8725724 5.364284 -0.12649505 23
-4.8761191 5.3681884 1.9432133 18
-2.2536139 2.4810355 -0.8981021 5
-4.8819842 5.3746452 0.12673938 26
-2.5877798 2.8489232 -0.88855666 4
-4.8760362 5.3680973 0.38006371 19
-2.9819412 3.2828612 -0.86207503 5
-4.876204 5.3682818 0.63449383 17
-3.5927207 3.955277 -0.84631044 6
-4.8930473 5.3868251 0.89354604 26
-4.5246673 4.9812703 -0.82627416 4
-4.8863659 5.3794694 1.1510448 30
-4.8896003 5.3830299 -0.63623691 30
-4.8814602 5.3740683 1.4112233 19
-4.8894649 5.3828812 -0.38111043 44
-4.8899207 5.3833828 1.6790347 19
-4.8846731 5.3776059 -0.12680918 36
-4.8813148 5.3739085 1.9452839 18
-2.2315173 2.4905624 -0.89603156 4
-4.8626347 5.4271126 0.12719314 27
-2.5683279 2.8664715 -0.88855666 5
-4.8620415 5.4264503 0.38184315 18
-2.9621468 3.3060067 -0.86283827 3
-4.8528461 5.4161873 0.63623691 16
-3.5617604 3.9752264 -0.84537184 8
-4.8681893 5.4333119 0.89573967 27
-4.4853578 5.0060396 -0.8252992 4
-4.8680906 5.4332018 1.155425 28
-4.8727894 5.438446 -0.63885158 33
-4.8578682 5.4217925 1.4150395 18
-4.8713713 5.4368629 -0.38257584 49
-4.87007 5.4354105 1.6848834 16
-4.8719759 5.4375377 -0.12743747 42
-4.8639603 5.4285917 1.9530485 18
-2.2315173 2.4905624 -0.89603156 4
-4.8786478 5.4449844 0.12761199 27
-2.5592248 2.8563118 -0.88540733 5
-4.8767023 5.4428129 0.38299453 19
-2.9621468 3.3060067 -0.86283827 5
-4.879437 5.4458652 0.63972312 17
-3.5538511 3.9663992 -0.84349465 8
-4.882761 5.4495749 0.89842081 27
-4.4456177 4.9616857 -0.81798702 4
-4.8852272 5.4523277 1.1594923 28
-4.8914032 5.4592204 -0.64129198 34
-4.8775196 5.4437256 1.4207637 18
-4.8833661 5.4502506 -0.38351789 49
-4.889576 5.4571815 1.6916319 17
-4.8906574 5.4583883 -0.12792614 42
-4.8858757 5.4530516 1.9618484 18
-2.2285857 2.5216172 -0.90172553 5
-4.8679571 5.5080333 0.1283101 26
-2.5435951 2.8780463 -0.88675708 4
-4.8527679 5.4908471 0.38404125 19
-2.9226735 3.3069687 -0.85787725 4
-4.8660049 5.5058246 0.64286077 18
-3.5385439 4.003819 -0.84631044 8
-4.8600144 5.4990463 0.90110195 25
-4.3959665 4.9739819 -0.81506217 4
-4.862391 5.5017352 1.1629338 26
-4.8818378 5.5237393 -0.64495248 37
-4.8663554 5.5062208 1.4283961 16
-4.8686395 5.5088053 -0.3852973 49
-4.8652225 5.5049386 1.696131 17
-4.8732543 5.5140271 -0.12844971 42
-4.8742318 5.5151329 1.9722011 18
-2.2209098 2.5129318 -0.89861971 5
-4.8851724 5.5275126 0.12876385 26
-2.541014 2.8751259 -0.88585722 5
-4.87393 5.5147915 0.38571599 20
-2.9239736 3.30844 -0.85825884 4
-4.8818378 5.5237393 0.64495248 18
-3.5437765 4.0097394 -0.84756196 6
-4.8823624 5.5243325 0.90524548 24
-4.4248877 5.0067053 -0.82042444 4
-4.876781 5.5180173 1.1663754 26
-4.8937125 5.5371752 -0.64652127 37
-4.8845568 5.5268159 1.4337388 16
-4.889802 5.5327501 -0.38697207 46
-4.8858705 5.5283022 1.7033293 19
-4.8891454 5.5320077 -0.12886856 38
-4.8857455 5.5281606 1.9768598 18
-2.1897426 2.5145755 -0.89344335 5
-4.8589687 5.579762 0.12914781 25
-2.5326679 2.9083712 -0.8903563 4
-4.851737 5.5714579 0.3871814 19
-2.9060895 3.3371875 -0.86016697 5
-4.8556089 5.5759039 0.6468699 20
-3.4987216 4.0177321 -0.84380752 6
-4.8704162 5.5929084 0.91060776 27
-4.3750315 5.0240364 -0.81798702 4
-4.8595519 5.5804319 1.172007 28
-4.8739271 5.5969396 -0.64931029 34
-4.8516483 5.5713558 1.4360285 16
-4.8753462 5.5985694 -0.3890655 41
-4.8644114 5.5860128 1.7100779 16
-4.8721008 5.5948424 -0.12949686 38
-4.8527031 5.5725675 1.9799657 17
-2.1897426 2.5145755 -0.89344335 5
-4.873414 5.5963507 0.12953176 26
-2.5301082 2.905432 -0.88945645 5
-4.8805928 5.6045942 0.3894842 18
-2.903511 3.3342264 -0.85940373 5
-4.8673849 5.589427 0.64843875 18
-3.5039105 4.0236912 -0.84505898 6
-4.8873639 5.6123695 0.91377634 27
-4.3880677 5.0390067 -0.82042444 4
-4.8790107 5.6027775 1.1767 28
-4.8974786 5.6239853 -0.65244788 34
-4.8787236 5.602448 1.4440424 18
-4.8871512 5.6121254 -0.39000756 44
-4.8848877 5.6095266 1.7172763 16
-4.8931127 5.6189713 -0.13005534 38
-4.8806143 5.604619 1.9913538 17
-2.1793122 2.5363693 -0.89603156 5
-4.858345 5.6543331 0.13012514 26
-2.5006232 2.9103236 -0.88585722 4
-4.8602357 5.6565337 0.39084491 18
-2.8966873 3.3712785 -0.86398315 5
-4.8522811 5.6472754 0.651402 16
-3.4668489 4.0348549 -0.842556 6
-4.8565025 5.6521883 0.91499501 27
-4.351964 5.0649872 -0.81993693 4
-4.8790779 5.678463 1.1857733 26
-4.8769512 5.6759877 -0.65471393 34
-4.873446 5.6719084 1.4535829 14
-4.8641405 5.661078 -0.39115894 44
-4.9021869 5.705358 1.7366221 15
-4.8857126 5.6861844 -0.13085814 40
-4.9314651 5.7394333 2.0275884 12
-2.1856072 2.5436957 -0.89861971 5
-4.8922286 5.693768 0.13103266 25
-2.5057032 2.9162359 -0.88765687 4
-4.890173 5.6913757 0.39325237 14
-2.8774955 3.3489425 -0.85825884 4
-4.9146061 5.7198119 0.659769 13
-3.4719982 4.0408483 -0.84380752 6
-4.9354172 5.7440329 0.9298631 16
-4.3157411 5.0228291 -0.81311226 4
-4.9640436 5.777349 1.2064226 16
-4.9172029 5.7228346 -0.66011757 28
-4.9809203 5.7969909 1.4856389 9
-4.9018874 5.7050095 -0.39419442 38
-4.9834666 5.7999544 1.7654159 8
-4.9326277 5.7407866 -0.13211472 23
-4.9931555 5.8112311 2.0529528 9
-2.153616 2.5430536 -0.89292568 5
-4.9586225 5.8552885 0.13392977 13
-2.4835117 2.9326046 -0.88720697 5
-4.9525809 5.848155 0.40162614 10
-2.8585327 3.3754401 -0.85978532 7
-4.968833 5.8673453 0.67266804 10
-3.4608662 4.0866938 -0.84818769 6
-4.968595 5.8670645 0.94399995 16
-4.2925172 5.0687318 -0.81554967 4
-4.9659791 5.863976 1.2170601 16
-4.9662576 5.8643045 -0.67231941 23
-4.9722986 5.871438 1.4955609 9
-4.9590344 5.8557754 -0.4021495 22
-4.9720612 5.8711576 1.7762135 9
-4.9650841 5.8629184 -0.1341043 17
-4.9676743 5.8659773 2.0596819 8
-2.1623552 2.5533733 -0.89654917 5
-4.9909301 5.8934388 0.13480239 13
-2.4822524 2.9311173 -0.88675708 5
-4.987431 5.889307 0.40445226 10
-2.867414 3.3859277 -0.86245668 5
-4.9817085 5.8825498 0.67441112 10
-3.4532068 4.0776491 -0.84631044 6
-4.9942522 5.8973618 0.94887471 15
-4.2848196 5.0596423 -0.81408721 4
-4.9889584 5.8911099 1.2226918 14
-4.9997349 5.9038358 -0.67685151 20
-4.9900613 5.8924131 1.5009036 9
-4.9938846 5.8969274 -0.40497562 22
-4.998508 5.9023871 1.7856615 12
-4.9909301 5.8934388 -0.13480239 17
-4.9864011 5.8880906 2.0674465 10
-2.1412098 2.5635846 -0.89499629 5
-4.9622364 5.9410872 0.13511653 13
-2.4659913 2.9524324 -0.88810676 5
-4.9715548 5.9522433 0.40644103 10
-2.8468175 3.4083805 -0.86321992 5
-4.9607105 5.93926 0.67702579 11
-3.420306 4.0949955 -0.84505898 6
-4.9743557 5.9555964 0.95277452 16
-4.2910023 5.137445 -0.82188684 4
-4.9728031 5.9537382 1.2286363 16
-4.9849777 5.9683142 -0.68033773 20
-4.9687161 5.9488444 1.5066278 12
-4.9689941 5.9491777 -0.4062317 22
-4.9782043 5.9602046 1.7928599 15
-4.9776196 5.9595041 -0.13553539 17
-4.9672599 5.9471011 2.0762463 15
-2.1412098 2.5635846 -0.89499629 4
-4.9801831 5.962574 0.1356052 13
-2.4572465 2.941963 -0.88495743 4
-4.9869189 5.9706383 0.40769711 9
-2.8405247 3.4008465 -0.86131179 5
-4.9862552 5.9698434 0.68051201 11
-3.4228387 4.0980277 -0.84568471 4
-4.9807181 5.9632144 0.9539932 16
-4.2604613 5.1008792 -0.81603712 4
-4.9917979 5.9764795 1.2333293 22
-5.0117993 6.0004263 -0.68399829 23
-4.9762673 5.9578853 1.5089176 12
-4.9907598 5.9752369 -0.40801111 19
-4.9807029 5.9631958 1.7937597 15
-5.0045395 5.9917345 -0.13626839 17
-4.9833593 5.9663763 2.0829756 12
-2.1228106 2.578841 -0.89499629 5
-4.9678903 6.0351119 0.13644291 12
-2.4287007 2.9504437 -0.88225806 4
-4.9592986 6.0246749 0.40895316 9
-2.817364 3.4226015 -0.86169344 5
-4.9624019 6.0284448 0.68312669 10
-3.3909154 4.1193652 -0.84505898 6
-4.9454889 6.0078983 0.95545566 18
-4.1960959 5.097518 -0.81067485 4
-4.9576917 6.0227227 1.2355194 18
-4.9953241 6.0684395 -0.68765879 20
-4.967195 6.0342674 1.5192212 7
-4.9732614 6.0416374 -0.41010454 19
-4.9589581 6.0242615 1.8014081 10
-4.9767861 6.0459194 -0.13668725 17
-4.974915 6.0436459 2.0974696 8
-2.1314049 2.5892818 -0.89861971 5
-4.988224 6.0598145 0.1370014 12
-2.4336545 2.9564619 -0.88405764 4
-4.9770694 6.0462632 0.41041857 8
-2.8061345 3.4089594 -0.85825884 4
-4.9750643 6.0438275 0.68486983 11
-3.3909154 4.1193652 -0.84505898 6
-4.9820752 6.0523448 0.96252406 15
-4.2011423 5.1036487 -0.8116498 4
-4.9765229 6.0455995 1.2402124 14
-5.0130515 6.0899754 -0.69009918 20
-4.9921494 6.0645828 1.5268536 10
-4.9859548 6.0570574 -0.41115126 19
-4.9911594 6.0633798 1.8131055 9
-4.9920368 6.064446 -0.13710611 17
-4.9884205 6.0600529 2.1031635 8
-2.1137309 2.6037297 -0.89861971 5
-4.9695473 6.121573 0.13762967 13
-2.4233003 2.9850624 -0.88765687 4
-4.9609752 6.1110134 0.412512 10
-2.7717292 3.414263 -0.8548243 4
-4.9463677 6.09302 0.68661296 10
-3.3528373 4.1300821 -0.842556 8
-4.9670372 6.1184807 0.96764261 15
-4.1788173 5.1475382 -0.81408721 4
-4.9638925 6.1146069 1.2474084 14
-4.9739943 6.1270504 -0.69044781 23
-4.9656024 6.1167135 1.531433 8
-4.9710455 6.1234183 -0.41334939 22
-4.9681954 6.1199074 1.819854 7
-4.968287 6.1200204 -0.13759477 17
-4.9653196 6.116365 2.1109281 8
-2.1015551 2.5887313 -0.89344335 5
-4.9808903 6.1355453 0.13794382 13
-2.4159307 2.9759846 -0.88495743 4
-4.9861512 6.1420259 0.41460544 10
-2.7828655 3.4279811 -0.85825884 4
-4.9689713 6.120863 0.68975055 10
-3.3528373 4.1300821 -0.842556 6
-4.9895577 6.1462221 0.97202986 15
-4.1888266 5.1598673 -0.81603712 4
-4.9875479 6.1437459 1.2533529 12
-5.0003648 6.159534 -0.69410831 23
-4.9854007 6.1411009 1.5375389 8
-4.9836335 6.1389246 -0.41439611 22
-4.9890752 6.1456275 1.8275024 9
-4.993494 6.1510706 -0.13829286 17
-4.9823656 6.137363 2.118175 9
-2.0822241 2.6018312 -0.89292568 5
-4.9591765 6.1967106 0.1385372 12
-2.3890076 2.9851708 -0.88270795 5
-4.9618702 6.2000766 0.41617551 10
-2.7723601 3.4641867 -0.86245668 5
-4.9435477 6.1771817 0.69219089 10
-3.3165169 4.1441345 -0.84067881 6
-4.9601717 6.1979542 0.974711 13
-4.1254144 5.1548877 -0.81067485 4
-4.9692211 6.2092614 1.2596103 12
-4.9871197 6.2316265 -0.69829184 24
-4.9644871 6.2033463 1.544408 7
-4.9656138 6.2047544 -0.41648954 22
-4.9618788 6.2000871 1.8333511 9
-4.9754195 6.2170072 -0.13899097 17
-4.9659538 6.2051792 2.1295631 8
-2.0894666 2.6108811 -0.89603156 5
-4.9854155 6.2294974 0.1392702 12
-2.3963134 2.9942999 -0.88540733 5
-4.9793415 6.2219076 0.41764092 10
-2.7564127 3.4442599 -0.85749561 4
-4.9709358 6.2114043 0.69602579 10
-3.3115797 4.1379652 -0.83942735 6
-4.9775367 6.2196527 0.97812337 13
-4.1353369 5.1672869 -0.81262475 4
-4.9865007 6.2308536 1.2639905 12
-5.0095282 6.2596269 -0.70142943 24
-4.9841146 6.2278719 1.5505139 7
-4.9905729 6.2359419 -0.41858298 22
-4.9752727 6.2168236 1.8383 9
-4.9929123 6.2388649 -0.13947964 17
-4.9900956 6.2353454 2.1399159 8
-2.0699921 2.623888 -0.89551389 5
-4.9678135 6.2971191 0.1400032 12
-2.3656952 2.9987166 -0.88180816 5
-4.9568129 6.283175 0.41942036 10
-2.7250044 3.4541709 -0.85520589 3
-4.9657059 6.2944474 0.70142943 9
-3.3144214 4.2013063 -0.84756196 6
-4.9585843 6.2854204 0.98299813 13
-4.1065392 5.2053819 -0.81408721 4
-4.9551148 6.2810225 1.2671192 12
-4.9755778 6.3069611 -0.70282394 24
-4.9672661 6.2964249 1.5589095 8
-4.9667091 6.2957191 -0.42025772 21
-4.9691668 6.2988348 1.852247 10
-4.9715295 6.3018293 -0.14010791 18
-4.9679809 6.2973309 2.1492333 8
-2.0592232 2.6102376 -0.89085513 4
-4.9839149 6.3175287 0.14045696 11
-2.3825929 3.0201359 -0.88810676 5
-4.9815536 6.3145361 0.4215138 10
-2.7298684 3.4603364 -0.85673237 4
-4.9780459 6.3100896 0.7031725 9
-3.2887282 4.1687379 -0.84099168 6
-4.981945 6.315032 0.98762918 16
-4.0893259 5.1835628 -0.81067485 4
-4.9795847 6.3120399 1.2733766 14
-4.9965563 6.3335528 -0.70578718 18
-4.9818578 6.3149214 1.563489 8
-4.9939241 6.3302164 -0.42256051 21
-4.9860649 6.3202538 1.8585457 7
-4.9938231 6.3300886 -0.14073621 18
-4.9787498 6.3109813 2.153892 8
-2.0362067 2.6184499 -0.88878459 5
-4.9531922 6.3695331 0.14084092 12
-2.3470953 3.0182357 -0.88270795 5
-4.9569659 6.3743858 0.42318854 10
-2.7176962 3.494808 -0.86054856 5
-4.9607797 6.3792906 0.70700741 9
-3.2595451 4.191596 -0.84099168 6
-4.9633274 6.382566 0.99274766 14
-4.0579128 5.2182531 -0.8116498 4
-4.9608626 6.3793969 1.2799468 12
-4.965672 6.3855815 -0.7077046 24
-4.9593434 6.3774433 1.570358 7
-4.9569659 6.3743858 -0.42318854 21
-4.959764 6.377984 1.8652941 8
-4.9691505 6.3900547 -0.14129469 18
-4.9559159 6.3730359 2.1632097 8
-2.0516236 2.6382751 -0.89551389 5
-4.9777431 6.4011045 0.14153902 12
-2.3494878 3.0213122 -0.88360775 5
-4.9814873 6.4059191 0.42528197 10
-2.70926 3.4839594 -0.85787725 4
-4.9766798 6.3997369 0.70927346 6
-3.2546945 4.1853585 -0.83974022 6
-4.9742947 6.3966694 0.99494129 13
-4.072536 5.2370577 -0.81457472 4
-4.9863276 6.4121437 1.286517 10
-4.9595571 6.3777175 -0.70683306 24
-4.9834476 6.4084396 1.5779904 7
-4.9729047 6.3948822 -0.42454928 18
-4.9836898 6.408751 1.8742921 8
-4.9887915 6.4153118 -0.14185315 18
-4.9808202 6.4050612 2.1740799 8
-2.035969 2.6552451 -0.89654917 5
-4.95961 6.468163 0.14227201 11
-2.3241251 3.0310488 -0.88180816 5
-4.9535675 6.4602828 0.42664272 10
-2.6890666 3.5069938 -0.85902208 3
-4.9633117 6.472991 0.71363121 9
-3.2333424 4.2168207 -0.84161741 8
-4.9584208 6.4666119 1.0005473 13
-4.0078049 5.22685 -0.80872494 4
-4.9569902 6.464747 1.2902715 10
-4.9451265 6.4492745 -0.71101654 24
-4.9576306 6.4655819 1.5837146 7
-4.9657202 6.4761319 -0.42768943 18
-4.9470663 6.4518042 1.8769916 8
-4.9742112 6.4872055 -0.14269088 18
-4.9594417 6.4679437 2.1839151 8
-2.0277405 2.6445136 -0.89292568 5
-4.9839454 6.4999008 0.14297011 11
-2.3312397 3.0403275 -0.88450754 5
-4.973012 6.485642 0.42831746 10
-2.6830935 3.4992039 -0.85711402 4
-4.9754353 6.488802 0.71537435 9
-3.2261305 4.2074151 -0.83974022 6
-4.977747 6.491817 1.0044471 9
-4.017468 5.2394524 -0.81067485 4
-4.9714141 6.4835577 1.2940259 10
-4.9717979 6.4840584 -0.71485138 18
-4.9874959 6.5045309 1.5932552 7
-4.9973183 6.5173411 -0.43041089 18
-4.980268 6.4951048 1.8895888 8
-4.987596 6.5046616 -0.14307483 18
-4.9806008 6.4955387 2.1932325 8
-2.0034051 2.6508992 -0.89033753 5
-4.9613543 6.5648484 0.14363331 10
-2.3052578 3.0503097 -0.88270795 5
-4.9529014 6.5536633 0.43051559 10
-2.6514971 3.5084524 -0.8548243 4
-4.9528379 6.5535793 0.71868628 8
-3.2014427 4.2361388 -0.84099168 6
-4.9562421 6.5580835 1.0093219 13
-3.9807923 5.2673717 -0.81067485 4
-4.9474678 6.5464735 1.2996576 11
-4.9264102 6.51861 -0.71485138 18
-4.9597201 6.5626855 1.5989794 6
-4.9673519 6.5727839 -0.43177164 15
-4.9653516 6.570137 1.9012864 8
-4.9673829 6.572825 -0.14380783 18
-4.9560981 6.5578933 2.2025502 8
-2.00457 2.6524405 -0.89085513 5
-4.974617 6.582397 0.14401726 11
-2.3087826 3.0549738 -0.88405764 5
-4.979394 6.5887179 0.43281835 9
-2.6562319 3.5147176 -0.85635078 4
-4.9768634 6.5853696 0.7221725 7
-3.2062068 4.2424426 -0.84224313 6
-4.9777856 6.5865898 1.0137092 11
-3.9760048 5.2610369 -0.80969989 4
-4.97367 6.5811443 1.3065406 11
-4.9816685 6.5917277 -0.72286975 18
-4.9762917 6.5846133 1.6043221 7
-4.9878235 6.5998716 -0.43355107 18
-4.9841504 6.5950122 1.9084847 8
-4.9890847 6.601541 -0.14443612 18
-4.9735699 6.5810118 2.2103148 8
-1.9860036 2.6663704 -0.89085513 4
-4.9512377 6.6474366 0.14468046 11
-2.2804143 3.0616405 -0.88135821 4
-4.9547501 6.6521516 0.43470246 9
-2.641012 3.5457718 -0.85940373 5
-4.9569511 6.655107 0.72600734 9
-3.176511 4.2647228 -0.84224313 6
-4.944725 6.6386929 1.0163903 13
-3.9320645 5.2791142 -0.80823749 4
-4.9582839 6.6568961 1.3146752 13
-4.9438596 6.6375303 -0.72408992 15
-4.9548292 6.6522584 1.612336 7
-4.953557 6.6505499 -0.43459779 18
-4.9566126 6.6546526 1.9156832 8
-4.9655719 6.6666813 -0.14509931 18
-4.9540462 6.651207 2.2222204 8
-1.9906197 2.6725676 -0.89292568 5
-4.9799061 6.685926 0.14551817 11
-2.2839067 3.066329 -0.88270795 5
-4.9690666 6.6713729 0.4359585 10
-2.6445301 3.5504951 -0.86054856 5
-4.9867048 6.6950536 0.7303651 10
-3.1741512 4.2615542 -0.84161741 8
-4.97437 6.678493 1.0224838 13
-3.9486654 5.3014021 -0.8116498 4
-4.9771633 6.6822438 1.3196812 11
-4.9759932 6.6806726 -0.7287963 15
-4.9794569 6.6853228 1.62035 6
-4.9774179 6.6825852 -0.43669122 18
-4.9694176 6.671844 1.9206321 8
-4.9894619 6.6987557 -0.1457974 18
-4.979434 6.6852922 2.2336082 8
-1.9760158 2.6929736 -0.89499629 5
-4.9532294 6.7504101 0.14614645 10
-2.2561419 3.0747378 -0.88045841 5
-4.9495578 6.7454062 0.43847063 9
-2.6120872 3.5598309 -0.85825884 6
-4.9563489 6.7546611 0.73297977 9
-3.1435752 4.2841587 -0.84161741 8
-4.9499397 6.7459269 1.0273585 11
-3.8965364 5.310317 -0.80872494 4
-4.9409056 6.7336144 1.3228098 11
-4.9669571 6.7691183 -0.73454863 15
-4.9570422 6.7556062 1.6287456 6
-4.9672813 6.7695603 -0.44004071 15
-4.9469109 6.7417989 1.93053 8
-4.9638767 6.7649202 -0.14646059 18
-4.9508967 6.747231 2.2424083 8
-1.96573 2.6789558 -0.89033753 5
-4.9792557 6.7858791 0.14691436 10
-2.2607532 3.0810225 -0.88225806 5
-4.9708261 6.7743912 0.44035473 9
-2.6039572 3.5487509 -0.85558754 4
-4.9704928 6.7739372 0.73507154 7
-3.1435752 4.2841587 -0.84161741 8
-4.9734273 6.777936 1.0322334 9
-3.9012337 5.3167186 -0.80969989 4
-4.9619408 6.7622819 1.3284415 11
-4.988173 6.7980323 -0.73768622 15
-4.9767866 6.7825146 1.635233 8
-4.9814601 6.7888832 -0.44129679 18
-4.9791908 6.7857909 1.9431272 8
-4.9899025 6.8003893 -0.14722849 18
-4.9714684 6.7752662 2.2517257 8
-1.9526395 2.7004414 -0.89292568 5
-4.9434772 6.8366795 0.14726341 10
-2.2277701 3.0809388 -0.87775904 5
-4.9561791 6.8542457 0.44328555 9
-2.5756679 3.5620706 -0.85444266 3
-4.9487648 6.8439922 0.73890638 7
-3.1135898 4.3060002 -0.84161741 8
-4.9515772 6.8478813 1.0375956 12
-3.8454108 5.3180866 -0.80580008 4
-4.9447045 6.838377 1.3365761 11
-4.9639416 6.8649812 -0.74117243 15
-4.9454203 6.8393664 1.6405758 8
-4.9620304 6.8623381 -0.44380891 18
-4.9545336 6.8519697 1.9521252 8
-4.9645681 6.8658476 -0.14789169 15
-4.9489503 6.8442488 2.2631137 6
-1.9537714 2.7020068 -0.89344335 5
-4.9680834 6.8707089 0.14799641 10
-2.2426143 3.1014678 -0.88360775 5
-4.9725633 6.8769045 0.44475096 9
-2.5963743 3.5907073 -0.86131179 5
-4.9721136 6.8762827 0.7423926 7
-3.1078024 4.2979965 -0.84005308 8
-4.9632087 6.8639674 1.040033 10
-3.868674 5.3502588 -0.81067485 4
-4.9794288 6.8863993 1.3459622 11
-4.989625 6.9005008 -0.74500728 15
-4.9718785 6.8759575 1.6493529 6
-4.9690523 6.8720489 -0.44443694 15
-4.9739451 6.8788157 1.9597735 8
-4.9762855 6.8820524 -0.14824075 15
-4.967062 6.8692966 2.2713959 7
-1.9409407 2.7231085 -0.89603156 5
-4.952539 6.9483328 0.14893883 10
-2.215796 3.1087263 -0.88135821 4
-4.9418683 6.9333615 0.44621637 9
-2.5616176 3.5939083 -0.85787725 4
-4.9483218 6.9424162 0.74587888 8
-3.0704494 4.3077908 -0.83786297 8
-4.9463291 6.9396205 1.0463701 10
-3.8091228 5.3441381 -0.80580008 4
-4.9450512 6.9378276 1.3494037 11
-4.9656682 6.9667525 -0.74849349 15
-4.9523087 6.94801 1.6585118 6
-4.9592571 6.9577579 -0.44778645 15
-4.9405804 6.9315553 1.9651724 8
-4.9548602 6.9515896 -0.14900865 15
-4.9504642 6.9454217 2.2853723 8
-1.9431833 2.7262549 -0.89706683 4
-4.9792342 6.985786 0.14974165 10
-2.2225826 3.1182477 -0.88405764 4
-4.9673715 6.9691424 0.44851914 10
-2.5536411 3.5827174 -0.85520589 4
-4.9760756 6.9813547 0.75006235 8
-3.0807681 4.322268 -0.84067881 8
-4.9785905 6.9848824 1.0531949 10
-3.7952967 5.3247404 -0.80287522 4
-4.9714217 6.9748249 1.3565997 11
-4.9957352 7.0089359 -0.75302559 16
-4.9773779 6.9831815 1.6669074 6
-4.9893975 7.0000443 -0.45050791 15
-4.9632025 6.9632931 1.9741704 8
-4.9838772 6.9922996 -0.14988127 15
-4.9717684 6.9753113 2.2952073 7
-1.9229929 2.7381735 -0.89654917 5
-4.9475822 7.0449238 0.15026522 10
-2.1985192 3.1304986 -0.88315785 4
-4.946146 7.0428782 0.45103127 10
-2.5364652 3.6117041 -0.85787725 4
-4.9455371 7.0420113 0.75285131 8
-3.0607357 4.3582196 -0.84349465 6
-4.9479599 7.0454612 1.0570947 10
-3.7808483 5.3835964 -0.80774999 4
-4.9407725 7.0352268 1.3616055 11
-4.9661484 7.0713596 -0.7559889 16
-4.9488153 7.046679 1.6737765 6
-4.9691033 7.0755672 -0.4531247 13
-4.952548 7.0519943 1.9894671 8
-4.9567766 7.0580153 -0.15054446 15
-4.9429355 7.0383072 2.3045247 7
-1.9163313 2.7286878 -0.89344335 5
-4.9717169 7.079289 0.15099822 10
-2.1873193 3.1145511 -0.87865883 4
-4.9736948 7.0821052 0.45354339 10
-2.5443635 3.6229506 -0.86054856 5
-4.9684381 7.0746207 0.75633752 8
-3.0516534 4.3452873 -0.84099168 6
-4.9662137 7.0714531 1.0609945 10
-3.7603126 5.3543553 -0.80336273 4
-4.9691544 7.0756407 1.3694273 11
-4.9844694 7.0974474 -0.75877792 13
-4.9646115 7.0691719 1.6791191 6
-4.979434 7.0902777 -0.45406675 15
-4.9727077 7.0806999 1.9975654 9
-4.9843588 7.09729 -0.15138218 15
-4.9629207 7.0667639 2.3138423 6
-1.8972349 2.7419999 -0.89344335 5
-4.9403782 7.1401362 0.1515567 11
-2.1655226 3.1297455 -0.87865883 4
-4.9457235 7.1478615 0.45553216 10
-2.5167744 3.6373961 -0.85978532 5
-4.9484024 7.1517334 0.76086962 8
-3.0167477 4.3599877 -0.83974022 6
-4.9381857 7.1369672 1.0656255 8
-3.7341356 5.396801 -0.80580008 4
-4.9488597 7.1523943 1.3775619 11
-4.946135 7.1484566 -0.76052099 13
-4.9486513 7.1520929 1.6905677 6
-4.9502692 7.1544313 -0.45595086 15
-4.9453306 7.1472936 2.0065634 9
-4.9597211 7.1680918 -0.15215008 15
-4.9398456 7.1393666 2.3262656 6
-1.9005326 2.7467656 -0.89499629 5
-4.966548 7.1779585 0.15235952 11
-2.163305 3.1265404 -0.87775904 4
-4.9673157 7.1790676 0.45752093 10
-2.5111892 3.629324 -0.85787725 3
-4.9710755 7.1845021 0.76435584 8
-3.0257394 4.3729835 -0.84224313 6
-4.9686823 7.1810427 1.0722065 10
-3.7341356 5.396801 -0.80580008 4
-4.9679675 7.1800098 1.3828807 11
-4.9552045 7.1615639 -0.7619155 6
-4.9709926 7.1843824 1.6982001 6
-4.9798164 7.1971345 -0.45867231 15
-4.9542012 7.1601138 2.0101626 9
-4.9904423 7.2124915 -0.1530925 15
-4.9684253 7.1806712 2.3397241 6
-1.878046 2.755178 -0.89344335 5
-4.9534841 7.2669835 0.15351136 11
-2.1502059 3.1544487 -0.88135821 5
-4.9395742 7.2465773 0.45961437 10
-2.479156 3.6370332 -0.85558754 4
-4.9454856 7.25525 0.76819074 8
-2.9995873 4.4005294 -0.84349465 6
-4.9441442 7.2532816 1.0778124 8
-3.6695344 5.3833718 -0.79995036 4
-4.9344101 7.2390013 1.3875737 11
-4.9118199 7.2058606 -0.76296139 6
-4.9439368 7.2529778 1.7062141 6
-4.9553232 7.2696819 -0.46107978 15
-4.9370217 7.2428331 2.0236597 9
-4.9546103 7.2686357 -0.15354627 15
-4.9442883 7.2534928 2.3521476 6
-1.8736937 2.7487929 -0.8913728 5
-4.9692521 7.2901163 0.15400003 11
-2.1567914 3.1641102 -0.88405764 4
-4.9643226 7.2828846 0.46191716 10
-2.4913197 3.6548779 -0.85978532 5
-4.9611964 7.2782979 0.77063107 8
-2.9906864 4.3874712 -0.84099168 6
-4.9687419 7.2893677 1.0831747 10
-3.678479 5.3964939 -0.80190027 4
-4.9544368 7.2683816 1.3932054 11
-4.9118199 7.2058606 -0.76296139 6
-4.9627352 7.2805557 1.7127016 6
-4.9710722 7.2927866 -0.46254519 13
-4.9721451 7.2943606 2.0380566 9
-4.9827676 7.3099442 -0.15441889 13
-4.9704022 7.2918038 2.3645709 6
-1.8527856 2.7582757 -0.89033753 5
-4.9373555 7.3503313 0.15455851 11
-2.1265113 3.165776 -0.88045841 4
-4.9424767 7.3579555 0.46453395 8
-2.4598157 3.6619725 -0.85749561 3
-4.942647 7.3582082 0.7755118 8
-2.954144 4.3978877 -0.83911449 6
-4.9389338 7.3526807 1.087562 8
-3.6815093 5.4807301 -0.81067485 4
-4.9389939 7.3527699 1.4029043 12
-4.8648796 7.242435 -0.76331002 6
-4.9415259 7.3565397 1.7226236 7
-4.9513865 7.3712187 -0.46537131 15
-4.9441118 7.3603892 2.0470545 9
-4.9529662 7.3735704 -0.15504718 13
-4.9378891 7.3511252 2.372853 6
-1.8592489 2.7678976 -0.89344335 5
-4.9618864 7.3868504 0.15532641 11
-2.113472 3.1463642 -0.8750596 4
-4.9669776 7.3944302 0.46683672 10
-2.4652894 3.6701212 -0.85940373 5
-4.9670877 7.3945942 0.77934664 8
-2.9607527 4.4077263 -0.84099168 6
-4.958858 7.3823419 1.0919493 10
-3.6770818 5.4741383 -0.80969989 4
-4.9720378 7.4019632 1.4122903 12
-4.8715458 7.2523584 -0.76435584 6
-4.9765568 7.4086905 1.7348354 7
-4.9758873 7.4076934 -0.46767411 13
-4.9680171 7.395978 2.0569525 10
-4.9830718 7.4183898 -0.1559896 15
-4.9637418 7.3896132 2.3852763 7
-1.8446305 2.7869327 -0.89551389 5
-4.9379802 7.460474 0.15616414 11
-2.0877042 3.154177 -0.87326002 4
-4.9330664 7.4530501 0.4684068 10
-2.4413342 3.6884539 -0.85978532 5
-4.9474306 7.4747524 0.78422737 8
-2.9285014 4.4244828 -0.84036595 8
-4.938076 7.460619 1.0985303 9
-3.6222053 5.4725552 -0.80580008 4
-4.9389839 7.4619908 1.4172963 12
-4.8286657 7.2953181 -0.76540172 6
-4.9455171 7.4718614 1.7417045 7
-4.9518061 7.4813633 -0.47018623 13
-4.9283156 7.4458728 2.0614514 10
-4.9512243 7.480484 -0.156583 13
-4.9495807 7.4780006 2.4028759 6
-1.8318353 2.7676013 -0.88930225 5
-4.9699874 7.508832 0.15717638 9
-2.1092157 3.1866775 -0.88225806 4
-4.9628301 7.4980183 0.47123295 8
-2.4348328 3.6786311 -0.85749561 3
-4.9694242 7.5079808 0.78771359 8
-2.9306819 4.4277773 -0.84099168 6
-4.9676585 7.5053129 1.1051112 9
-3.5937185 5.4295163 -0.79946291 4
-4.9586091 7.491641 1.4229279 12
-4.8110709 7.2687354 -0.76261276 6
-4.9650216 7.5013294 1.7485737 7
-4.9738536 7.5146728 -0.47227967 13
-4.9648852 7.5011234 2.0767481 10
-4.983232 7.528842 -0.15759523 15
-4.9687734 7.5069976 2.4121935 6
-1.8136076 2.7841923 -0.89033753 5
-4.9366407 7.5785732 0.15787446 9
-2.0772908 3.1889901 -0.87865883 4
-4.9360771 7.5777073 0.47395441 8
-2.4078019 3.6963804 -0.85749561 4
-4.9360042 7.5775952 0.7911998 9
-2.8938334 4.4425206 -0.83974022 6
-4.928761 7.5664759 1.1087673 9
-3.5819924 5.49896 -0.80580008 4
-4.9272799 7.5642023 1.429811 12
-4.7663593 7.3171625 -0.76400727 6
-4.9388332 7.5819392 1.7588773 7
-4.9578795 7.6111779 -0.47604784 15
-4.9374208 7.5797706 2.0884457 8
-4.9508295 7.6003551 -0.15832824 13
-4.932591 7.5723557 2.4215109 6
-1.8262607 2.803617 -0.89654917 5
-4.951921 7.6020308 0.15836313 9
-2.0847361 3.2004201 -0.88180816 5
-4.9611497 7.6161985 0.47636187 6
-2.4056587 3.6930902 -0.85673237 3
-4.959928 7.6143231 0.79503471 9
-2.8808954 4.4226584 -0.83598578 6
-4.9601817 7.6147122 1.1158357 9
-3.6144967 5.5488596 -0.81311226 4
-4.957469 7.6105475 1.4385713 12
-4.7380853 7.273757 -0.75947517 6
-4.9634795 7.6197748 1.7676545 7
-4.9709606 7.6312599 -0.47730392 13
-4.958694 7.6124282 2.0974436 8
-4.9748416 7.6372175 -0.15909614 13
-4.9515705 7.6014924 2.4308286 7
-1.8066434 2.8162982 -0.89654917 5
-4.9322004 7.6885939 0.15944518 11
-2.0549769 3.2034144 -0.87865883 4
-4.9348183 7.6926751 0.47897866 9
-2.3967786 3.7362344 -0.86283827 3
-4.9324684 7.6890121 0.79921818 9
-2.856349 4.4526386 -0.83786297 6
-4.9336967 7.6909266 1.1219292 9
-3.5263658 5.4970994 -0.80190027 4
-4.9351482 7.6931887 1.4476446 13
-4.702251 7.3301353 -0.7619155 6
-4.9324241 7.6889424 1.7756685 7
-4.9456024 7.709486 -0.48002538 13
-4.9264731 7.6796656 2.1064417 10
-4.9516354 7.7188902 -0.16007347 13
-4.9317608 7.6879086 2.4473929 6
-1.7993417 2.8049159 -0.89292568 5
-4.9591937 7.7306724 0.16031781 9
-2.0528724 3.200134 -0.87775904 2
-4.9499164 7.7162104 0.48044407 8
-2.3819377 3.7130997 -0.85749561 3
-4.9668937 7.7426758 0.8047961 9
-2.8627486 4.462615 -0.83974022 6
-4.9540615 7.7226725 1.1265602 9
-3.517791 5.4837322 -0.79995036 4
-4.9543467 7.7231169 1.4532762 13
-4.7065539 7.3368435 -0.76261276 6
-4.9610453 7.7335587 1.7859722 7
-4.9757981 7.7565565 -0.4829562 13
-4.960144 7.7321539 2.1208386 8
-4.9797082 7.7626519 -0.160981 13
-4.9651399 7.7399421 2.4639573 6
-1.7812397 2.8187315 -0.89344335 5
-4.932096 7.8048201 0.16115552 8
-2.0372887 3.2239175 -0.88045841 4
-4.9314218 7.8037529 0.48379359 8
-2.3419256 3.705992 -0.85215294 4
-4.9438777 7.8234644 0.80967683 9
-2.8238645 4.4686384 -0.83723724 6
-4.9278917 7.7981672 1.1326537 9
-3.4803834 5.5075502 -0.79995036 4
-4.9248786 7.7933989 1.4601593 13
-4.6522474 7.3619728 -0.7619155 6
-4.9313631 7.8036604 1.7943678 7
-4.9495597 7.8324556 -0.48557299 13
-4.9386292 7.8151584 2.1343355 8
-4.9449148 7.8251052 -0.16157438 11
-4.9309173 7.8029547 2.4732747 6
-1.7698877 2.8007677 -0.88774931 5
-4.9641433 7.8555336 0.16220267 9
-2.0435348 3.2338018 -0.88315785 2
-4.9602294 7.8493395 0.48661971 6
-2.3660476 3.7441638 -0.8609302 3
-4.9545212 7.8403072 0.81141996 9
-2.8238645 4.4686384 -0.83723724 6
-4.9565239 7.8434763 1.1392347 9
-3.4761415 5.5008378 -0.79897541 4
-4.9607573 7.8501749 1.4707968 13
-4.6607623 7.3754468 -0.76331002 6
-4.9649243 7.8567691 1.8065796 7
-4.9805012 7.8814192 -0.48860848 13
-4.9563265 7.8431635 2.141984 8
-4.9705529 7.8656764 -0.16241209 11
-4.9556856 7.8421493 2.4856982 6
-1.7538452 2.8176701 -0.88930225 5
-4.9295788 7.9196997 0.16283095 9
-2.0297141 3.2608721 -0.88675708 2
-4.9351826 7.9287024 0.48944587 8
-2.3405073 3.7601821 -0.8609302 3
-4.9263082 7.9144449 0.81560344 10
-2.7954698 4.4911103 -0.83786297 6
-4.9323926 7.9242201 1.1460593 9
-3.4679902 5.5715594 -0.80580008 4
-4.9301734 7.9206548 1.47768 10
-4.5872889 7.3697877 -0.75947517 6
-4.9351916 7.9287171 1.8153567 8
-4.9541802 7.9592233 -0.49132997 13
-4.9347486 7.9280057 2.155931 8
-4.9485998 7.9502578 -0.16345924 11
-4.9307752 7.9216218 2.5001919 6
-1.7660955 2.8373511 -0.89551389 5
-4.962337 7.9723277 0.163913 7
-2.0152969 3.23771 -0.88045841 2
-4.9594574 7.9677014 0.49185333 8
-2.3342824 3.7501817 -0.85864049 4
-4.9578938 7.9651895 0.82083279 10
-2.7902505 4.4827251 -0.83629864 6
-4.9575686 7.9646673 1.151909 9
-3.4554024 5.5513358 -0.80287522 4
-4.9489627 7.9508414 1.4833117 10
-4.6020288 7.3934689 -0.7619155 6
-4.9517913 7.9553852 1.8214626 8
-4.9752889 7.9931359 -0.4934234 13
-4.9615235 7.9710207 2.1676283 8
-4.9845281 8.0079794 -0.164646 13
-4.9634433 7.9741049 2.5167563 6
-1.7462442 2.8496115 -0.89551389 5
-4.9316354 8.0476971 0.16475071 7
-1.9885718 3.2450542 -0.87865883 2
-4.9287577 8.0430012 0.49436545 6
-2.2977867 3.7496469 -0.8548243 4
-4.9354787 8.0539694 0.82641077 10
-2.763016 4.5088325 -0.8375501 6
-4.9308863 8.0464754 1.1587337 10
-3.4290092 5.5956345 -0.80580008 4
-4.9284277 8.0424633 1.4939492 11
-4.5544653 7.4322114 -0.76261276 6
-4.9289575 8.0433273 1.8336744 8
-4.9371061 8.0566244 -0.49520281 13
-4.9281554 8.0420189 2.1775262 8
-4.9493976 8.076683 -0.1653441 11
-4.9308686 8.0464468 2.528662 5
-1.7341316 2.8298454 -0.88930225 5
-4.9629803 8.0988483 0.16579786 9
-1.9926447 3.2517006 -0.88045841 2
-4.9548464 8.0855751 0.49698225 6
-2.3039415 3.7596905 -0.85711402 4
-4.9583812 8.0913429 0.83024561 8
-2.763016 4.5088325 -0.8375501 6
-4.9537048 8.0837116 1.164096 10
-3.4124138 5.5685534 -0.80190027 4
-4.9490705 8.076149 1.5002065 11
-4.544055 7.4152236 -0.76086962 6
-4.9638348 8.1002417 1.8466494 8
-4.9778051 8.1230392 -0.49928501 13
-4.9454651 8.0702658 2.1851745 9
-4.9619355 8.0971432 -0.16576296 11
-4.9561033 8.0876255 2.5416031 6
-1.7098471 2.8355646 -0.88723171 5
-4.9276171 8.1718283 0.16656576 7
-1.9653 3.259201 -0.87865883 2
-4.9247074 8.1670036 0.49980837 6
-2.2729237 3.769356 -0.85558754 4
-4.9168158 8.1539154 0.83303457 8
-2.7368014 4.5386381 -0.83942735 8
-4.928535 8.1733503 1.1718956 10
-3.3724792 5.5928292 -0.80190027 4
-4.9135938 8.1485729 1.5070896 11
-4.4888191 7.4441376 -0.76052099 6
-4.9300747 8.1759043 1.8558083 8
-4.9432721 8.1977901 -0.50169247 10
-4.9318662 8.1788759 2.2049701 9
-4.941041 8.1940908 -0.16701953 11
-4.9250379 8.167551 2.5555792 5
-1.7128397 2.8405278 -0.88878459 5
-4.9523997 8.2129278 0.16740349 7
-1.9693252 3.2658763 -0.88045841 4
-4.9556479 8.2183142 0.50294852 8
-2.2779927 3.7777622 -0.85749561 3
-4.9559116 8.218751 0.83965844 8
-2.7327211 4.5318718 -0.83817589 8
-4.9541616 8.2158489 1.1779891 8
-3.3786297 5.6030293 -0.80336273 4
-4.9482756 8.2060881 1.5177271 11
-4.4888191 7.4441376 -0.76052099 6
-4.9503508 8.2095289 1.8634406 8
-4.9659615 8.2354183 -0.50399524 10
-4.9620552 8.22894 2.2184672 9
-4.9740844 8.248889 -0.16813648 11
-4.9589553 8.2237997 2.573179 5
-1.7018416 2.8673677 -0.89344335 5
-4.9214787 8.2920113 0.16831101 7
-1.9464772 3.2795451 -0.88045841 2
-4.9236379 8.2956495 0.50556535 6
-2.2535677 3.7969499 -0.85825884 3
-4.9279037 8.3028364 0.84471345 8
-2.7030327 4.5542364 -0.83880162 6
-4.9128947 8.2775488 1.1818889 10
-3.3576682 5.6572065 -0.80774999 4
-4.9291782 8.3049841 1.5296162 11
-4.4489431 7.4958539 -0.76261276 6
-4.9209743 8.2911606 1.874126 8
-4.9328122 8.3111067 -0.5065074 10
-4.922389 8.2935457 2.2265656 9
-4.9449534 8.331563 -0.16911381 11
-4.9231143 8.2947664 2.5845671 4
-1.7077576 2.8773355 -0.89654917 5
-4.9520979 8.3436003 0.16935815 7
-1.9424987 3.2728417 -0.87865883 2
-4.9460645 8.3334351 0.50786811 7
-2.263588 3.8138328 -0.86207503 5
-4.9523091 8.343956 0.84889692 8
-2.7030327 4.5542364 -0.83880162 6
-4.944303 8.3304672 1.1894448 10
-3.3414574 5.6298938 -0.80385017 4
-4.9533753 8.3457527 1.5371251 11
-4.4428415 7.4855738 -0.76156688 6
-4.957047 8.3519392 1.8878642 8
-4.971549 8.3763723 -0.51048493 13
-4.9442711 8.3304129 2.2364633 9
-4.9735308 8.3797121 -0.17009115 11
-4.9586105 8.3545732 2.6032019 5
-1.6856798 2.8858514 -0.89551389 5
-4.9280205 8.436677 0.17054492 7
-1.9235344 3.2930539 -0.88045841 2
-4.9179873 8.4194994 0.51100826 7
-2.217103 3.7956378 -0.85444266 3
-4.9210701 8.424777 0.85360336 8
-2.675158 4.5798187 -0.84005308 6
-4.9170637 8.4179192 1.1970007 8
-3.3341117 5.7079353 -0.8116498 4
-4.9169102 8.4176559 1.5440081 11
-4.3804255 7.4992042 -0.75982374 6
-4.924365 8.430418 1.8977863 8
-4.9401493 8.4574404 -0.51331109 10
-4.9194121 8.4219389 2.25176 9
-4.937098 8.4522171 -0.17085905 11
-4.9216003 8.4256849 2.6145899 5
-1.6808079 2.8775108 -0.89292568 5
-4.9582787 8.4884777 0.17159206 7
-1.9294318 3.3031502 -0.88315785 2
-4.9542527 8.4815845 0.51477647 7
-2.2279954 3.8142853 -0.85864049 3
-4.9522223 8.4781094 0.859007 9
-2.6671872 4.5661731 -0.8375501 6
-4.9450984 8.4659138 1.2038254 8
-3.3100822 5.6667967 -0.80580008 4
-4.9368372 8.4517698 1.5502656 11
-4.3824353 7.502645 -0.76017237 6
-4.9481301 8.4711037 1.9069451 8
-4.9733925 8.5143528 -0.51676524 10
-4.9488993 8.4724207 2.2652571 9
-4.9703817 8.5091982 -0.17201091 11
-4.9469342 8.4690561 2.6280487 4
-1.6558647 2.8808005 -0.89033753 5
-4.9168348 8.5540924 0.17222035 7
-1.9024402 3.3097816 -0.88135821 4
-4.9207973 8.5609865 0.51749796 7
-2.2120745 3.8484697 -0.86283827 3
-4.9187288 8.5573874 0.8635391 9
-2.6273694 4.5709815 -0.83504719 8
-4.9214878 8.5621872 1.2126 8
-3.2704401 5.6897674 -0.80580008 4
-4.917089 8.554534 1.5627803 11
-4.3478227 7.5641499 -0.76331002 6
-4.9201784 8.5599089 1.9191569 8
-4.9516521 8.614666 -0.52074277 10
-4.916822 8.5540705 2.2778544 9
-4.9387584 8.5922337 -0.17298825 11
-4.9165707 8.5536327 2.6435778 4
-1.6568274 2.8824754 -0.89085513 5
-4.9467306 8.6061039 0.17326748 7
-1.8907866 3.2895072 -0.8759594 4
-4.9466758 8.6060076 0.52021939 7
-2.2169664 3.8569803 -0.86474639 5
-4.9534793 8.6178446 0.86963999 9
-2.6273694 4.5709815 -0.83504719 6
-4.946219 8.6052141 1.2186934 10
-3.2803326 5.7069778 -0.80823749 4
-4.9505587 8.6127634 1.5734179 11
-4.3378935 7.546876 -0.76156688 6
-4.9485507 8.6092701 1.9302238 7
-4.9616051 8.6319818 -0.52178949 13
-4.9498405 8.6115141 2.2931511 9
-4.9756298 8.6563807 -0.17427973 11
-4.9493027 8.6105785 2.6611774 5
-1.6414187 2.9023795 -0.89344335 5
-4.9239354 8.7065716 0.17459388 8
-1.865857 3.2992344 -0.8750596 5
-4.9081044 8.6785793 0.52252221 7
-2.1793549 3.8535657 -0.86054856 3
-4.9236002 8.7059784 0.87504363 9
-2.6070633 4.6098456 -0.83880162 6
-4.9124079 8.6861887 1.2252743 10
-3.2150033 5.684814 -0.80190027 4
-4.9097586 8.6815033 1.5796752 11
-4.2870626 7.5804448 -0.7619155 6
-4.9163537 8.6931658 1.9412907 8
-4.9356341 8.7272568 -0.52545297 10
-4.9155021 8.691659 2.3052983 9
-4.9436235 8.7413845 -0.17529197 11
-4.9214034 8.7020941 2.6787772 4
-1.6376147 2.8956535 -0.8913728 5
-4.9495296 8.7518282 0.17550141 8
-1.8773687 3.3195896 -0.88045841 5
-4.9425163 8.7394266 0.52618569 7
-2.18612 3.8655281 -0.86321992 3
-4.9471393 8.7476006 0.87922716 9
-2.6187322 4.6304793 -0.842556 8
-4.94661 8.746665 1.2338052 10
-3.1954591 5.6502557 -0.7970255 4
-4.936986 8.7296486 1.5884355 12
-4.2733316 7.5561652 -0.75947517 6
-4.9530792 8.7581043 1.9557922 8
-4.9680796 8.7846279 -0.52890718 10
-4.9471593 8.7476358 2.3201451 10
-4.9633112 8.7761965 -0.17599006 9
-4.9423251 8.739089 2.690165 4
-1.6258928 2.9199533 -0.89551389 5
-4.9205618 8.836875 0.17654854 8
-1.8609995 3.3421834 -0.88315785 4
-4.9174819 8.8313437 0.52974457 7
-2.160435 3.8799417 -0.86321992 3
-4.9180927 8.8324404 0.88445646 9
-2.5668225 4.6097765 -0.83567291 6
-4.9222918 8.839982 1.242336 8
-3.186887 5.7233548 -0.80433768 4
-4.9106936 8.8191528 1.5987602 12
-4.2231236 7.5843406 -0.75947517 6
-4.9225826 8.8405037 1.9668591 7
-4.9476027 8.885438 -0.53298938 10
-4.9136834 8.824522 2.3318427 10
-4.9341812 8.8613348 -0.17703721 9
-4.9162111 8.8290615 2.7077649 5
-1.6183742 2.9064507 -0.8913728 5
-4.9478011 8.8857937 0.17752588 8
-1.8562592 3.3336704 -0.88090831 5
-4.9505177 8.8906727 0.53330338 7
-2.151839 3.8645043 -0.85978532 3
-4.9481401 8.8864031 0.88986015 9
-2.5629785 4.6028728 -0.83442146 8
-4.9474006 8.8850746 1.2486733 8
-3.1984756 5.7441673 -0.80726254 4
-4.9433675 8.8778324 1.6093978 12
-4.2231236 7.5843406 -0.75947517 6
-4.9435949 8.8782396 1.9752548 7
-4.9680071 8.9220829 -0.53518748 10
-4.9516048 8.8926249 2.3498387 10
-4.9721217 8.929472 -0.1783985 11
-4.9481649 8.8864479 2.7253644 4
-1.6017561 2.9244556 -0.89344335 5
-4.9163857 8.976243 0.17864284 8
-1.827324 3.3362932 -0.87820894 5
-4.9132743 8.970562 0.53602487 7
-2.1276369 3.8845985 -0.8609302 3
-4.9223509 8.987134 0.89648396 9
-2.5412204 4.6397114 -0.83786297 8
-4.9005084 8.9472542 1.2525731 8
-3.1602035 5.7698388 -0.80774999 4
-4.9154301 8.9744978 1.620661 12
-4.1700726 7.6136384 -0.75947517 6
-4.9097862 8.9641933 1.9867033 7
-4.9315033 9.0038443 -0.53801364 10
-4.9156141 8.9748335 2.3624361 10
-4.9404011 9.0200891 -0.17951545 9
-4.9101343 8.9648285 2.7388232 4
-1.5999001 2.9210668 -0.89240807 5
-4.9471254 9.0323658 0.17975979 8
-1.8320047 3.3448389 -0.88045841 5
-4.9420571 9.0231133 0.53916502 8
